# This PCD file was generated using the MATLABÂ® pcwrite function
# from Computer Vision ToolboxÂ®.
# .PCD v.7 - Point Cloud Data file format
VERSION .7
FIELDS x y z
SIZE 8 8 8
TYPE F F F
COUNT 1 1 1
WIDTH 933
HEIGHT 1
VIEWPOINT 0 0 0 1 0 0 0
POINTS 933
DATA ascii
1.445594689655993 9.005020041721886 -1.444515850181492
1.122473826052480 7.007838251951826 -1.379549036572419
0.929468977277281 5.809361085827061 -1.358254466128257
0.783883637538095 4.910411337060090 -1.332400444187777
5.903802930550532 35.700651031362234 9.695879067630633
5.955163742770059 36.050320228825967 8.435664537894938
nan nan nan
7.799228240526081 47.367816758445301 7.603340738815381
7.049880646329446 42.910161718711727 5.339339673266321
5.302178828553327 32.343079315968247 2.867423936397953
6.119295897362408 37.368312800192911 1.984474788819944
6.454550435035070 39.502046582975332 0.698654734497334
7.973741674127700 48.217694979144184 -0.853073626654418
nan nan nan
3.285812217788667 19.956045166896644 -1.769435889262956
2.047365330040998 12.448016714436770 -1.548959354679424
1.478298904044857 9.007716313786448 -1.445767325901814
1.149149793922061 7.017439534516702 -1.382220362507691
0.949741769129986 5.806081241010367 -1.358254466128257
0.803820163253111 4.924804755074829 -1.337059186999622
6.436800481137976 38.097085486865957 10.352761804100830
6.497066835231919 38.494679001564954 9.012888943341295
6.065004382503425 36.011333782924694 7.098476245998220
6.708247168721221 39.915697986348199 6.410684377348661
7.179573863487992 42.765872154992081 5.324471613370893
5.435125047314345 32.444239673436122 2.878056937013168
6.214201728797113 37.174461587832567 1.975263660521186
6.651683150061895 39.834304791851714 0.704937600814756
8.164657954924548 48.323646661297410 -0.855447153929889
nan nan nan
3.368012841847918 20.019115498639096 -1.776059725711778
2.082579506406706 12.391853269493442 -1.542865887509167
1.497644379117109 8.930418858365430 -1.434191175488837
1.175258380315433 7.023067148090285 -1.384128452461456
0.968717790946356 5.795042369175889 -1.356454857693506
0.824184540829971 4.941024137050594 -1.342235567901673
6.542850455738604 37.879064031508399 10.299962718899915
6.623123164894165 38.423754993717694 9.001641390624101
6.205314255106263 36.075076497312196 7.115267437591355
6.339994761693638 36.896596150373831 5.929491962884911
7.349275854096996 42.859898976477659 5.339339673266321
5.560440877516067 32.495768359792514 2.884332150490999
6.341661761666154 37.100249371212428 1.972542190796553
7.109445220024685 41.679563916556425 0.738027363419845
7.371023489542433 42.718125011213949 -0.756666533494864
8.035160804464306 46.664280754871399 -2.481561701215425
3.422013799289236 19.914947238797506 -1.767867085893498
2.131867451545836 12.419724826019221 -1.547253183871752
1.522471550837416 8.888143329091429 -1.428246665817308
1.199766299518888 7.018921943833356 -1.384128452461456
0.989596375540467 5.795467482033349 -1.357354661910881
0.838181918634559 4.919073063264460 -1.337059186999622
6.654350504331400 37.777251323342796 10.278221919111305
6.328295685152960 35.962951349081358 8.430265712590685
6.318977602821627 35.983584163055419 7.101529189924245
6.465336064063501 36.854784003277423 5.926363273584106
7.506371064845040 42.877001886517519 5.344701924376148
5.673838401221297 32.476160823632931 2.884332150490999
6.437898356369097 36.925544555011328 1.964377781622654
7.250087081143969 41.626912856800629 0.737538696039601
8.652373433071835 49.120178672856191 -0.870595842717451
7.540998686041460 42.898463185757230 -2.282685067492238
3.495640238571219 19.926429913178612 -1.769958823719442
2.179661977029509 12.437626379213471 -1.550421786800286
1.566759540873742 8.958662651540120 -1.440448554090446
1.224259599948606 7.014691216227578 -1.384128452461456
1.009485593271396 5.790058057550342 -1.356904759802194
0.855347581493350 4.916117293687508 -1.337059186999622
6.972441611599447 38.790045030338653 10.560334678273051
6.432437054915780 35.821722543368608 8.402371781852047
6.488873364086102 36.208663567398709 7.150376292740641
7.153012291464552 39.954796533342517 6.428830775293329
6.944441840364100 38.867986663987949 4.847962480656767
5.814446600611059 32.609150885118460 2.897928446359634
6.575151169089030 36.950039989089504 1.966889907522315
7.492295960179477 42.146717291531246 0.747207329205856
8.857744256582073 49.278619703094748 -0.873946704753409
7.695633492413805 42.899401135229667 -2.284150474267040
3.570090708533573 19.941563365583150 -1.772399184516377
2.220268248443239 12.414309475365425 -1.548471877305804
1.597327375759214 8.949249773724771 -1.439822816230285
1.248393693670644 7.008442186655724 -1.383746834470703
1.029690517492522 5.786499020220441 -1.356904759802194
0.872840608825114 4.915003713993350 -1.337576825089827
7.087942598117903 38.657160369456129 10.530829307131365
6.557154081290535 35.832782308580235 8.410020117699737
6.788444293781984 37.169983149427253 7.344619850033962
nan nan nan
7.086452509719875 38.917004563798081 4.856980812068747
5.904025802827991 32.487755519114167 2.888864249113878
6.851437396356399 37.738464324504349 2.010119407378987
8.451657224351528 46.645284379852662 0.827453494004486
8.574341409207936 46.809933577109440 -0.830664736788946
nan nan nan
3.635484461950274 19.925694806812754 -1.772050561545386
2.269610488771237 12.451795622007371 -1.554077867102441
1.625227670139446 8.934186229822044 -1.438258471579883
1.271627661385639 7.004263829189417 -1.383746834470703
1.048178038640348 5.779217711744514 -1.356004955584818
0.892231380175582 4.929190891463795 -1.342235567901673
7.837049151761473 41.917362102067898 11.426343203186086
6.686841000130733 35.834579012747341 8.415868845112676
6.941515233904751 37.271514929506480 7.369425019432914
7.358321652460631 39.547845650780182 6.371262892158523
7.253062063234037 39.057927787711250 4.877698600447623
6.029738123634972 32.533555602719339 2.894790839620718
6.807980262892077 36.804267686013560 1.961551639985535
7.576597788558317 40.999457600656513 0.727765348434723
nan nan nan
nan nan nan
3.697726934139268 19.873707749806034 -1.768564331835480
2.311973210707724 12.437942356140198 -1.553346651042010
1.667213582417842 8.986725775159080 -1.447644539482296
1.298571422039717 7.013295441257145 -1.386418160405975
1.068344887265427 5.775523678618524 -1.356004955584818
0.910484208995086 4.931745636217636 -1.343788482172288
9.035342840027607 47.364925885721227 12.920246731517835
8.331495854751303 43.758210737554471 10.283862400384132
6.892610974857549 36.269882196582245 7.176326316111850
7.500005731515768 39.541327114722023 6.374391581459327
6.122941838218066 32.312009272400594 4.038018824386157
6.152641684046202 32.530813813341751 2.896533954475672
6.906521703130632 36.586733476757587 1.951293792561918
7.809829753227062 41.411585086368525 0.735584026518626
9.916119584078242 52.031455290383434 -0.924558683421531
nan nan nan
3.772401020004554 19.869808534005980 -1.769435889262956
2.356805165205992 12.425484368828938 -1.552859173668389
1.703447331856209 8.998022890173541 -1.450460359853021
1.318435539881196 6.977622930297624 -1.380312272553925
1.087698655025578 5.761994605245336 -1.353755445041380
0.928553844815003 4.928375419188394 -1.343788482172288
9.204308385932453 47.352061671078012 12.925423112419885
7.698053003467311 39.676988088507414 9.330969734183521
6.970650558700089 35.995033687540733 7.126715977313949
7.679222799699216 39.728248790126827 6.408807163768179
6.224402721149640 32.231966904852229 4.030706663781848
6.272191422741988 32.540440950550384 2.899322938243596
nan nan nan
7.954335581159998 41.384071399539984 0.735584026518626
9.121004218627563 46.967262424618390 -0.835132552836891
10.185833001126133 52.548450199142763 -2.805207254621789
3.865201066272137 19.977798448810301 -1.780243201363666
2.396019781967969 12.395742705605230 -1.550178048113476
1.753182293517933 9.087062714290695 -1.465790937426963
1.338329047426728 6.949844204578008 -1.375732856664888
1.109645962463150 5.767730957527288 -1.356004955584818
0.942108318100155 4.906132240298805 -1.338612101270237
8.499752171937207 43.005667436347956 11.746243542932801
7.794853271529513 39.475354403795315 9.289578740184249
7.110477200459291 36.075734877189099 7.147323348814615
8.623132190848107 43.830980660785613 7.075217984839562
7.603859634879664 38.685712444843389 4.840894058739268
6.408449752537273 32.664141361144374 2.912221988170250
7.195316315305107 36.742718163734310 1.962179671460450
8.078471807017436 41.290741745862320 0.734397262880890
10.471670899789876 52.982861983446178 -0.942709186116306
nan nan nan
3.928733976187258 19.951187193629046 -1.779023020965198
2.447458603721925 12.440318477508846 -1.556758992657354
1.786351573529461 9.096705838470477 -1.468293888867607
1.370053769632322 6.989679572994222 -1.384510070452209
1.131013392833994 5.775494017394874 -1.358704368236945
0.956890057537225 4.895397236775093 -1.336541548909417
8.322349321769494 41.311464544970740 11.291757299732774
7.893798050734652 39.254944776106889 9.244138627206789
7.230179743569226 36.019897141037546 7.141217460962566
8.557200282410216 42.708212735429562 6.898759908274181
6.438977063478075 32.165494682210259 4.027781799540124
6.528676257657884 32.672832955778020 2.915010971938175
7.479797112106611 37.500849177399502 2.004048436454805
8.196760993060796 41.132856116049958 0.732093545231169
8.548757827536212 42.473627736032576 -0.756247675740369
nan nan nan
4.014415042155814 20.017445025375302 -1.786169791870506
2.494378421617160 12.449217122108236 -1.558952640838646
1.813445253296956 9.067170698646780 -1.464539461706641
1.393290889367109 6.979078819976172 -1.383365216479950
1.144305479971440 5.737111124020163 -1.350606130280566
0.976235650618010 4.903395237848163 -1.339647377450647
nan nan nan
8.043282456930450 39.288243684487817 9.258535494684796
7.338965786230707 35.911729194745632 7.124807887360183
nan nan nan
6.597996608494683 32.372344615902918 4.056542964583739
6.675655093677564 32.811893070695589 2.929478825234286
6.391425222671040 31.442947680621618 1.681554274085785
9.247726687453174 45.576164417519848 0.811746328210931
10.854950830565159 52.975071108041483 -0.943895949754041
7.692588454143378 37.608647504810676 -2.011794157978761
4.095823370925264 20.059921449015341 -1.791224824949871
2.534644844586841 12.424874003642698 -1.557002731344164
1.848237854275765 9.076270566265039 -1.467042413147285
1.416079635569215 6.966477169264105 -1.381838744516938
1.164712613223273 5.734991554130069 -1.351056032389253
0.996032539560365 4.913211029416092 -1.343270844082083
nan nan nan
8.182760082797326 39.271374631129262 9.261234907336922
7.451882585802988 35.826307062617467 7.112977729646837
6.603736460401780 31.776503538508564 5.140436521221987
10.218251569760053 49.255479825932035 6.176582062459684
6.809542804619205 32.882038455444572 2.937845776538061
6.479694750806695 31.316786770083432 1.676006662724033
8.474821694547822 41.031546108510874 0.731325639347928
9.922023252741905 47.577005586723430 -0.848326572103477
7.914189054581543 38.015650923331293 -2.035031322550628
4.163793644920238 20.035748592453288 -1.790353267522394
2.561453967837798 12.336261643916140 -1.547009445184942
1.880710528662040 9.073632244360475 -1.467668151007446
1.439592976709641 6.957646620886395 -1.381075508535431
1.184329860169196 5.728982620252934 -1.350606130280566
1.013176778422406 4.909704294059328 -1.343270844082083
8.827501984445496 41.601532115504689 11.395284917773782
8.452359928492301 39.867860709210390 9.408802798986498
7.595187175853450 35.886508733111100 7.130150539230726
8.604602854501298 40.726071200806345 6.592774094655489
8.286759658239102 39.255575735415931 4.926202599122872
6.532751454715537 31.000127294120130 2.771726930861025
6.567573152332993 31.192348416482417 1.670563723274767
nan nan nan
10.085547082748871 47.530344553274830 -0.848117143226230
nan nan nan
4.232469491875367 20.015244324743620 -1.789830333065908
2.600806789694158 12.309765399714518 -1.544815797003649
1.897695899451419 8.997429362280677 -1.456404869524550
1.463061933294987 6.948736849930364 -1.380312272553925
1.203117007936913 5.719092634992936 -1.349256423954502
1.020779805714088 4.860763051246142 -1.330847529917162
nan nan nan
8.599689633044612 39.876212477259507 9.417800841160252
8.573686023127873 39.823085670689622 7.918191690135856
6.686663973717629 31.084605745537953 5.035938298575112
8.323707174548208 38.760607681583416 4.867705314288401
6.595816978556378 30.766737377735552 2.752901290427531
6.716155319595281 31.354764423940281 1.680507554960926
10.036422865813623 46.935619180090569 0.837785318615358
9.441765771308706 43.743816151914963 -0.781134807319935
9.209285070521306 42.739063615023959 -2.291268164316081
4.281359859757440 19.902956663955084 -1.781114758791142
2.647514200651376 12.318078841031092 -1.547009445184942
1.920388560383341 8.950190575960919 -1.449834621992860
1.485252640376045 6.933988931606855 -1.378404182600160
1.229190441255972 5.743441948827756 -1.356004955584818
1.028860887004641 4.815607534293139 -1.319459491932651
9.131160386963044 41.634832080904509 11.421166822284036
9.003014064401173 41.084797517410600 9.710237211807277
7.867811943427834 35.964395948782212 7.156100562601936
6.806203409695534 31.163799683209060 5.052207482939296
8.607096010424634 39.442631518437068 4.956913673660968
6.740640962117390 30.941315352865441 2.770506750462558
6.882964297325682 31.621151558418823 1.695998998008838
10.200504439662396 46.941160943668741 0.838483414872849
10.301744091757072 46.972275945687180 -0.839390940007588
9.265526349445944 42.318081312683056 -2.270333781818903
4.352016947708240 19.910060489954450 -1.783032185131591
2.683265121461458 12.285959103580064 -1.544084580943218
1.941220782536333 8.903242432892650 -1.443264374461170
1.515336984887943 6.961637223635854 -1.384891688442962
1.249886198077363 5.746951127144145 -1.357804564019569
1.055071754697107 4.859365868996548 -1.332400444187777
9.241622117496215 41.412537712139773 11.369403013263533
8.867950647755169 39.803438192516033 9.414651526399439
9.506114238970831 42.738088618992627 8.510462811784652
6.891236683831355 31.007518059292902 5.030932395693825
6.691947701193933 30.160513055225216 3.793305182828620
6.687451450650321 30.190078964413104 2.705314254887309
7.018333889167775 31.710036758745886 1.702069968933019
nan nan nan
nan nan nan
nan nan nan
4.427973270811770 19.923921853229196 -1.785646857414021
2.732159381861130 12.303648336439887 -1.547496922558563
1.986823763806290 8.961982846678884 -1.453901918083906
1.542598200278815 6.969723357036932 -1.387563014378234
1.267835244767360 5.733039358762594 -1.355555053476130
1.071611196016778 4.853766953139917 -1.331882806097572
nan nan nan
9.019318545578161 39.827358567072110 9.427698687551382
9.660002554914204 42.725709840106404 8.514660609682936
6.654761098288158 29.481516150357255 4.786894630231065
6.826012466418231 30.264775744833074 3.809391936158100
6.760843109563604 30.024659833939680 2.692589516446152
7.103990463972149 31.574277756247607 1.696103669921324
12.935783655869853 57.588029217926731 1.030250456805720
nan nan nan
nan nan nan
4.518128493279888 19.999684466920517 -1.793839497232300
2.781646848439716 12.323081967279190 -1.551153002860717
2.032860305730891 9.020512576482986 -1.464539461706641
1.567779567854056 6.968126968503187 -1.388326250359740
1.289121845635334 5.734282722357863 -1.356904759802194
1.086855213965269 4.842456929461334 -1.329812253736752
nan nan nan
9.548568592903825 41.491528592668139 9.829461270609524
9.787981893954420 42.599886748504645 8.496342946126786
6.754815356096695 29.422272001502147 4.781262989489616
6.979957230486236 30.451669710138489 3.835959453020422
6.843384431734958 29.903768093369457 2.683873942171386
7.211935937801964 31.539552809768310 1.695580310358894
11.503312899956727 50.387724517740196 0.902149793556059
nan nan nan
8.210537701065149 35.705876612240331 -1.920101562641123
4.558043089119767 19.853686073240628 -1.782160627704114
2.823313942706470 12.307492622948601 -1.550421786800286
2.066099398134353 9.021063695861251 -1.465790937426963
1.591218061209073 6.958784230223814 -1.387563014378234
1.308696312168911 5.727848128359828 -1.356454857693506
1.101603708445362 4.829216246491221 -1.327224063285726
nan nan nan
9.675714341032354 41.349993487739667 9.804266752523013
12.132601652967324 51.931416162038005 10.366271100816927
6.848053789135389 29.358115615975812 4.774692741957927
7.070793759251262 30.336951698854747 3.824747473427148
6.947522323228517 29.855198505062695 2.681782204345442
8.960892180934644 38.537607596833652 2.073550586345434
11.698769006324182 50.391973738832071 0.902987509065049
nan nan nan
8.227671575968063 35.189341852547287 -1.893933584519651
4.646179569055588 19.902814261107928 -1.788087218210955
2.866149514297655 12.287396011246475 -1.549203093366235
2.101837716836471 9.024973817723907 -1.467668151007446
1.623826839350373 6.983501226946381 -1.393668902230283
1.331886244449426 5.732503944314409 -1.358704368236945
1.121478986591602 4.834555641674326 -1.329812253736752
nan nan nan
nan nan nan
12.259404613532199 51.659524757907597 10.320476941926556
6.972352202876583 29.426296106687271 4.789710450601789
7.125881190117640 30.097667569062921 3.797692479191205
7.046652252231847 29.809436774412969 2.679864778004994
7.297866249005003 30.896231982413443 1.663760048963184
nan nan nan
13.715796297047817 57.662162454658258 -1.034578653602167
nan nan nan
4.735392243812966 19.969835937743852 -1.795582612087254
2.924584237094761 12.342991180823436 -1.557490208717785
2.132418408549768 9.013737420676568 -1.467042413147285
1.646839976836457 6.972058438202909 -1.392524048258024
1.351888303148637 5.727819869334557 -1.358704368236945
1.138347902650424 4.830611495695235 -1.329812253736752
nan nan nan
nan nan nan
7.743643666059859 32.155684672907903 6.429118290217301
7.124014375393077 29.605357626362146 4.822874557190318
7.166753542119985 29.828741090134887 3.766737665966299
7.127803676574504 29.712283345724188 2.673240941556172
7.509691358764568 31.328287267806068 1.688357948397368
7.732255185729286 32.306503877161546 0.579838751472307
7.235453860065229 29.976448087575456 -0.538267119338698
7.744497566354791 32.134589219981351 -1.732320151641441
4.823030475452615 20.043129413356869 -1.803600940420038
2.966427159192304 12.337085208380769 -1.557977686091405
2.165064169396329 9.018141287017528 -1.468919626727768
1.658967591330605 6.920738920718518 -1.383365216479950
1.368605344570590 5.713829681557940 -1.356454857693506
1.153012501523489 4.821173435840233 -1.328259339466136
nan nan nan
13.282119802204141 54.238539338969339 12.891944924446904
7.861902740683463 32.153250357425144 6.434079324097090
7.178083773662042 29.378822133241332 4.790023319531869
7.324937067860456 30.025323973279864 3.794767614949482
7.209313285367325 29.596239685183491 2.665048301737891
7.664347315049429 31.488180318305357 1.698406451996013
nan nan nan
8.147780716649656 33.246960138367264 -0.597500586786838
8.043186113091867 32.869788654779285 -1.773456213248395
4.923229455772471 20.150041022505878 -1.814756875491738
2.990169981249714 12.247588814979038 -1.547984399932183
2.195126633077855 9.004771334678935 -1.467981019937526
1.701223371298578 6.989300729101875 -1.398248318119320
1.393147440306416 5.727952928350608 -1.360953878780383
1.173025799521569 4.830260310219154 -1.331882806097572
nan nan nan
nan nan nan
7.982063945909786 32.133745831595583 6.435987414050857
7.243836934565934 29.183602302217377 4.762490853684788
7.260153816259700 29.293068005377279 3.705559255576914
7.347894054647424 29.691462288012140 2.676029925324096
7.758609578352144 31.374567916754359 1.693800887846634
nan nan nan
7.590353742892838 30.488580431260264 -0.548424419885197
7.833553945732368 31.512374002208464 -1.701755953195561
5.011929294779006 20.191806169423096 -1.820160531542093
3.043163577272826 12.269301131082072 -1.552127957607958
2.230015527813320 9.004335101461654 -1.469232495657848
1.726357716155630 6.981112642304348 -1.397866700128567
1.412729634742165 5.717132801795501 -1.359604172454320
1.187482280139176 4.812799285392695 -1.328259339466136
nan nan nan
12.211077011633222 48.364177396379617 11.516144276079826
8.066346519272470 31.995273591674238 6.413853570587176
7.280515794545503 28.899542768126917 4.720253548123926
7.354128878991852 29.234819894477010 3.701415697901139
7.440813562360896 29.623120480866419 2.672195072643199
8.877481427519797 35.368860274850952 1.911099778167337
nan nan nan
12.541480755222713 49.636300189411259 -0.893633019214665
7.585856661612151 30.067264846055849 -1.625136113255892
5.080434417605782 20.166460162377529 -1.819463285600112
3.080157615088250 12.235503375085077 -1.549203093366235
2.258061976350005 8.983085587312930 -1.467042413147285
1.743546640828096 6.946481164237517 -1.392142430267271
1.433625710768014 5.715947012603022 -1.360503976671696
1.203805530332635 4.806750900511479 -1.327741701375931
nan nan nan
13.716937743862546 53.579205712261924 12.768671746666465
8.221027309943233 32.158557238141249 6.452015369662486
7.357101365848921 28.821021758612094 4.711180349151593
7.468698056040381 29.279517983652685 3.710190290626310
7.551792770073769 29.648482281703181 2.676727171266077
8.991505833313377 35.352410153076292 1.911727809642252
nan nan nan
12.651419821886753 49.381353768764612 -0.889793489798463
7.720172278774631 30.177390014037041 -1.632463147129904
5.175882359540106 20.261465079078942 -1.829573351758840
3.131516790563354 12.267537046211592 -1.554565344476061
2.291253958684736 8.988947389461934 -1.469232495657848
1.757371517870072 6.904511884229083 -1.384891688442962
1.448729806929050 5.696052617325569 -1.356904759802194
1.217836545215488 4.795242867030465 -1.325671149015111
nan nan nan
nan nan nan
nan nan nan
7.424029778200601 28.644711679660329 4.686776572605317
7.586772755931279 29.314765802248125 3.717989928604239
7.641779298106106 29.569857595378764 2.672020761157704
12.600828886570072 48.794047739937085 2.641081695843917
nan nan nan
8.001491609591023 30.784269253545226 -0.555195953582863
8.169672015283671 31.476436035187778 -1.704268079095223
5.222583047780872 20.150698488041883 -1.821206400455065
3.173821709597905 12.254609585844085 -1.554321605789251
2.313714574721910 8.946470443935274 -1.463600854916400
1.793734458789935 6.945857737045273 -1.394432138211789
1.467630039626020 5.687187057519450 -1.356004955584818
1.236013841080467 4.796574826946082 -1.327224063285726
nan nan nan
nan nan nan
8.234038529457349 31.297253855166574 6.290590959573930
7.517946036945915 28.595697000962346 4.683022145444351
7.662842624411053 29.188262980756534 3.705315516890104
7.737877331185206 29.516020986805447 2.669580400360770
10.930527187004566 41.753748481330085 2.261960028820032
7.740111609790562 29.587690638274623 0.533834208103628
10.656887080939942 40.420381397477925 -0.729650208329949
8.361873488965685 31.760620278870565 -1.721224928917936
5.315180414134786 20.217129503338750 -1.828876105816859
3.198924833324593 12.176258327685916 -1.545790751750891
2.350944698814120 8.961268185880694 -1.467355282077366
1.814486399462386 6.926259953797390 -1.391760812276518
1.495862947338988 5.714078030928840 -1.363653291432510
1.253238073410563 4.794100156002326 -1.327741701375931
nan nan nan
12.945161060549530 48.447263791599255 11.577330962861357
8.337162470570265 31.245558353340005 6.286011543684893
7.709325889889912 28.912844557477545 4.739338552858834
7.694196126558134 28.896617432525655 3.671679578110283
7.869530795274624 29.596658195607738 2.679341843548507
11.146427743950738 41.979800410327059 2.276300080830599
7.830010979907395 29.510239124837831 0.532926682968889
13.055746135732004 48.826956511939187 -0.882219145404682
8.396431548518677 31.445649532585932 -1.705733485870025
5.389312200961173 20.211928794248013 -1.830096286215326
3.230675277287367 12.124736298315463 -1.540672239327874
2.379163434788341 8.941553521694134 -1.465478068496883
1.812940610020415 6.823115691146548 -1.372298294748110
1.525301567210786 5.744607763847792 -1.372201431497577
1.267984518553522 4.782227019431171 -1.325671149015111
nan nan nan
nan nan nan
8.477457376544747 31.331867628377417 6.309290241120831
7.844321726472734 29.032051959634838 4.763116591544949
7.775353789848629 28.796758071694413 3.662417508011492
7.975906612306506 29.580550221769894 2.680387712461479
8.344087788229849 30.967539357039463 1.680821570698384
nan nan nan
13.230814072608094 48.798456102323314 -0.882533288720553
8.182520113074553 30.220885540736660 -1.640836900128775
5.447871393793885 20.148756961643301 -1.826087122048934
3.266247494762274 12.088472437451225 -1.537503636399341
2.402127274057842 8.902679462537645 -1.460472165615595
1.845429857385422 6.848971773745260 -1.378785800590913
1.543318016201597 5.731721586418312 -1.370401823062826
1.284669881071218 4.777771792513474 -1.325671149015111
nan nan nan
nan nan nan
12.222377121182076 44.555250943069815 8.980616176392457
7.937620671339821 28.955478804425006 4.755294868292938
7.884212208640387 28.800075887171932 3.666317327000457
8.105908934587104 29.650544048025221 2.689277598221741
8.524584053444855 31.224857611767394 1.696313013746295
8.323209014894715 30.508193794019011 0.551984710798403
nan nan nan
8.584034969760472 31.270704925810296 -1.699453171120872
5.501314681441780 20.068129638660583 -1.820509154513084
3.318389372336736 12.113373957270463 -1.542134671448736
2.450911244911316 8.959022619290119 -1.471109709238331
1.867256431929947 6.834912885993769 -1.377259328627900
1.559210169948920 5.711259955704258 -1.366802606193324
1.308453512300453 4.799351913757212 -1.332918082277982
nan nan nan
nan nan nan
8.701246485848573 31.290835605801231 6.313106421028361
8.047867999365078 28.980387914654106 4.763742329405111
7.982041067482454 28.762815376858594 3.665098633566406
8.201909754845227 29.595188224320552 2.686837237424806
8.661762245016766 31.296930667774895 1.701860625108047
8.410995028943159 30.411497606896596 0.550763042347793
9.253555934161284 33.209636985528917 -0.601758973957536
8.454338871266902 30.382378235348256 -1.652769498152166
5.576133043620990 20.066081037293674 -1.822077957882541
3.371275932272572 12.139971019940216 -1.547009445184942
2.487975999126999 8.971351625444905 -1.474551267469216
1.893199340287461 6.835921442938326 -1.378785800590913
1.570819971101391 5.675732297477906 -1.359604172454320
1.329830166720399 4.811513687464998 -1.337576825089827
nan nan nan
15.595654752089070 55.261100451145012 13.256365632483964
8.825331026344283 31.313181800915448 6.323791724769449
8.124895329561580 28.866551908887800 4.749663227551490
8.053368379168770 28.631586958527663 3.651936744478649
8.327796152512484 29.646940250048850 2.694158319815609
8.623685651804880 30.741518284589386 1.673285192999400
8.511162205416081 30.360772334890324 0.550379089406173
9.486812344983624 33.592810108330113 -0.609298413538442
9.158860794084854 32.474870770361136 -1.768327289536586
5.670989467242470 20.134712067611144 -1.830096286215326
3.420623641103279 12.152970086570297 -1.550178048113476
2.536916450533345 9.025367713251478 -1.484875942161872
1.909090659067765 6.800918385651356 -1.373061530729616
1.600623008234252 5.705864459944609 -1.368152312519387
1.347138518760202 4.808702633650735 -1.338094463180032
nan nan nan
14.618187503018522 51.114330443636305 12.273779427109961
8.941050697859678 31.304838078552397 6.328371140658485
8.268413926416772 28.988084241106101 4.774379873027846
8.176117241377826 28.683481137032764 3.662173769324682
9.299666959356315 32.668373607911228 2.971662204724153
8.720563965246413 30.674727193281967 1.671296426662168
8.585392677027532 30.219310710250316 0.548354610259448
9.593011654287610 33.521039916066265 -0.608600317280951
nan nan nan
5.701865938701775 19.976850799526954 -1.817545859259663
3.453768071473249 12.108503601306357 -1.546034490437701
2.573817133873369 9.035455250186653 -1.488004631462676
1.926372353459693 6.771553016641574 -1.368482114840579
1.627458061630810 5.724610502025249 -1.374001039932327
1.354418530037369 4.770519698042096 -1.328776977556342
nan nan nan
15.706082914555486 54.201903284922885 13.028265263379286
9.068826204709286 31.337556960377896 6.341346152344090
8.358581582521781 28.921091296949264 4.768122494426237
8.473387905894775 29.337522244215521 3.749432219202768
9.944845857058699 34.477310268856137 3.139349853770647
8.892823613766225 30.870567188750989 1.683647712335503
8.710740774061263 30.258337474389652 0.549611183522932
16.411598051837750 56.599690274660446 -1.028644835413490
8.497594495176163 29.344470580226602 -1.601061573384138
5.739459205740302 19.845816382287239 -1.807435793100935
3.482234572642893 12.048697856031938 -1.539941023267444
2.603149874356916 9.018824301732778 -1.486753155742354
1.946191283251965 6.751582361039813 -1.365810788905308
1.647430766349866 5.718894736953005 -1.374001039932327
1.376937718918005 4.786184877080227 -1.334470996548597
nan nan nan
14.712327108848108 50.149735166926689 12.065924652896230
9.170487398154890 31.299775131788650 6.339819680381077
8.459988952784682 28.912173025570816 4.771251183727042
8.577313837843089 29.332125794859625 3.752357083444491
10.075877952447041 34.501517432611386 3.144579198335506
8.970871127472410 30.737721894528775 1.678100100973751
8.786411939685536 30.144813726626769 0.548075371756451
9.508913474165244 32.391990207420505 -0.589263050948441
8.447639141693196 28.813984137023287 -1.573637532312835
5.876341584352307 20.069512573417068 -1.829573351758840
3.550044440714500 12.132344343619819 -1.552127957607958
2.621407137883186 8.970324808818024 -1.480182908210664
1.964169368943700 6.730014394193429 -1.362757844979283
1.664203684369099 5.705917045342346 -1.372201431497577
1.389019858020553 4.768609093450412 -1.330847529917162
nan nan nan
15.454607428586812 52.007176968889951 12.525724607975091
14.423091992787990 48.598086710291639 9.853758139235527
8.827090294366910 29.761604317510518 4.916735236214456
8.605228647257556 29.050765051602909 3.720183576785532
8.848807074633982 29.911409258481328 2.729020616914672
9.098496126406385 30.775171539626797 1.681868289823243
8.887619551245733 30.100534876743399 0.547831038066329
8.700312781580967 29.259213219984407 -0.532821968530266
9.049662761449291 30.473011195418177 -1.665958159125388
5.969022894611810 20.125283828235620 -1.836545811178653
3.567550927623780 12.036135582757769 -1.541403455388305
2.649899910813433 8.951649099812053 -1.478618563560262
2.010470492018647 6.800307809953361 -1.378404182600160
1.681902242830541 5.692597622255387 -1.370401823062826
1.400736328296697 4.747055617911593 -1.326188787105316
nan nan nan
15.337735369345454 50.929503729435439 12.279628154522904
17.535928450346415 58.302381829714456 11.834355511244061
8.853066023546688 29.471425615857786 4.873872192793433
8.707651841295622 29.005721318250529 3.718477405977860
8.919468768132122 29.749000891115568 2.717167435900991
9.242187998365221 30.844931047390048 1.687520573097481
9.001323607448485 30.079252466784858 0.548040466943577
8.966739302589815 29.755571782379004 -0.542455696883646
8.307096872275345 27.601461003724932 -1.510625040996331
6.041025054926092 20.097546921997917 -1.836022876722167
3.616781514693318 12.040089511993848 -1.543597103569598
2.674176866997495 8.913495701304967 -1.473925529609055
2.026928781766170 6.764683700721797 -1.372679912738863
1.697724236915614 5.669593345508114 -1.366352704084636
1.424768023599685 4.764100034136149 -1.332400444187777
nan nan nan
14.250606019196795 46.728284209844077 11.278595962692703
13.802599463859828 45.315940174393369 9.208060498881300
8.949520016090585 29.400984226761089 4.867614814191824
8.855617230025421 29.128989493551792 3.738220239609494
9.103140394739651 29.980774482871823 2.741222420899345
9.759818521060083 32.163705336745281 1.761523615225003
nan nan nan
8.873276294772854 29.077623802874420 -0.530657870132042
8.543139350518535 28.030814995994671 -1.535746299992944
6.090835129840166 20.009625908234909 -1.829921974729831
3.664564572064572 12.046382853435558 -1.546034490437701
2.706422974050053 8.907886912457915 -1.474551267469216
2.032857520935614 6.699328492007427 -1.360849755025518
1.719766574475688 5.671092150464847 -1.368152312519387
1.438589254716404 4.749853084678103 -1.329812253736752
nan nan nan
14.388908141171745 46.598190008505789 11.259250172019131
15.346989176293055 49.762526997292021 10.122417204725703
9.035919496745413 29.335275773349764 4.861670304520294
9.012141089564011 29.276240289632565 3.761131676169662
9.238769422127389 30.049749886468931 2.750460929630596
9.913093926555398 32.263083240516124 1.768850649099016
9.656367705169934 31.466662904123865 0.574533219915373
8.939892866302426 28.933749207101577 -0.528598486172443
9.337060624019550 30.256614602414821 -1.659468500551263
6.175902487250291 20.037747146841021 -1.834454073352709
3.693151702367548 11.989883674903290 -1.540428500641064
2.717171399589983 8.832303670206217 -1.463600854916400
2.045850980216545 6.658411688766624 -1.353980631191962
1.736119705798123 5.653877142756423 -1.365452899867261
1.458559156172068 4.755884205264361 -1.332918082277982
nan nan nan
14.448561083150709 46.218464267080570 11.179617498781402
9.404225151745102 30.119414454426696 6.133364347383655
9.171033461602494 29.390588539511480 4.876375144234077
9.152080764832199 29.365895542095178 3.776730952125520
9.299786903086334 29.876542947803980 2.737561879703943
10.053536352430658 32.317917785419269 1.773770228985852
nan nan nan
10.101092557834313 32.291867912195848 -0.590589433837674
9.371147210891385 29.995071568777202 -1.646907871052956
6.237500897211725 19.989439919975009 -1.832013712555775
3.740891488023424 11.995869944609870 -1.542865887509167
2.765020733320995 8.877459516962494 -1.472674053888733
2.066748037648077 6.643731202875546 -1.352454159228950
1.754109246792181 5.642199857120348 -1.364103193541197
1.474578529730626 4.748918952349648 -1.332400444187777
nan nan nan
14.653458073558939 46.333804014950722 11.219208884345925
9.489269464915628 30.041261323273719 6.123823897614829
9.253811933137429 29.331490354574989 4.871369241352789
9.349695295508177 29.653445002913514 3.817679051509650
9.426339103672705 29.932957161359912 2.745580208036727
10.171443771028216 32.318693775221860 1.775654323410598
10.162961003542524 32.331147341205885 0.591566768598162
9.123960373530903 28.832190709897091 -0.527865485102077
8.208944781821362 25.972208241598917 -1.427515542482536
6.325346279511203 20.037044499344105 -1.838288926033606
3.698826148884969 11.724042404705090 -1.509473687416157
2.808692528615052 8.913458859384667 -1.480182908210664
2.086999936029858 6.631222996441760 -1.351309305256690
1.774563910496582 5.641928863944242 -1.365452899867261
1.482212554834997 4.718200304647198 -1.325153510924906
13.604310550297770 42.448815640888967 11.943981293391127
14.930953710485191 46.644286142628253 11.306939795540032
9.533092132668360 29.817214159315707 6.084898862558014
9.403942867505899 29.430973966200295 4.893582935388502
9.332441435893230 29.242403622049622 3.768931314147591
9.542868987615197 29.937836414912603 2.749066437746634
14.878861133722063 46.706052260516280 2.568962748141141
10.257566527795557 32.238308136458848 0.590519624211925
10.316390853583414 32.209033646150147 -0.590345100147552
8.427352502150669 26.342875797513535 -1.449496644104572
6.462562119668384 20.225505426678207 -1.857637500923586
3.719196792324905 11.646765134397320 -1.501186572064606
2.854195227575443 8.948767670611314 -1.487691762532596
2.136950677822032 6.708075916529077 -1.368482114840579
1.795429476635445 5.639413913029364 -1.366352704084636
1.500429374818900 4.718520716551480 -1.326706425195521
13.778359855957325 42.506380843016849 11.972969026442609
15.055845387259666 46.475088346180293 11.278595962692703
9.622005621161694 29.737058159516796 6.075358412789186
9.568309836392004 29.606389200379986 4.927998517697353
9.533911011840454 29.517556611913054 3.808660720097669
9.653430522428559 29.923304796662428 2.750809552601587
10.353919824182874 32.113833574823694 1.768327289536586
10.386586618316326 32.253698874062515 0.591462054159538
9.384217807970934 28.950407757492723 -0.531216347138036
8.550014831434178 26.408305934154008 -1.454730239728867
6.517797040693603 20.155430336234311 -1.853279713786203
3.742125563637662 11.578933768675356 -1.494118150147108
2.862355821116581 8.867315344370825 -1.475802743189538
2.159750772537941 6.698707161164834 -1.368100496849826
1.816896756641578 5.638676821051378 -1.367702410410699
1.512748050983330 4.700381773750239 -1.323082958564086
13.976023347989639 42.608547749803584 12.015415349839422
15.179738232961331 46.305588412131009 11.250252129845377
9.739799723617196 29.746202968131055 6.084135626576508
9.709052998377130 29.687337881608439 4.947083522432261
9.721379259083465 29.742597241322354 3.842052920190679
9.799251467526430 30.016324631669686 2.762488422129773
15.180404873185292 46.526989583288852 2.564880543554191
9.839236528630250 30.192379649039868 0.554288428448124
9.439096041087963 28.776867665975271 -0.528633390985318
8.621002830725006 26.313768178955733 -1.451171394704347
6.523049721605654 19.933730150432758 -1.834977007809195
3.804117561350991 11.631837152816463 -1.502649004185468
2.874889831797130 8.800937824429242 -1.466416675287124
2.192254861485627 6.719123762267203 -1.373824766711123
1.835360074063650 5.628594854334092 -1.366802606193324
1.530941001664520 4.700583309954403 -1.324635872834701
12.599750674065096 37.964719270146240 10.718214295785589
14.371332508229891 43.328024297005932 10.538956896010076
9.885558771167251 29.838751065218883 6.110085649947718
9.792340089231701 29.574667509993493 4.934255896298962
10.854839292871400 32.822001880931722 4.244709230801287
9.917716860985657 30.023556548226622 2.766323274810671
10.508988092496164 31.832144131719545 1.756813379163138
9.905115027510112 30.038206497031993 0.552089425237027
12.584944285480285 37.920105658292471 -0.697398161233849
8.734169731358403 26.347972503276999 -1.454730239728867
6.622025692974697 19.999735132537324 -1.843169647627475
3.846567973003686 11.624141204512085 -1.503380220245899
2.882036133750828 8.719576883189255 -1.454527655944067
2.214464682375072 6.707701857070267 -1.373061530729616
1.854996355016004 5.622153960768105 -1.366802606193324
1.545525775042756 4.689706340852889 -1.323082958564086
12.740659366020497 37.923777684735441 10.719767210056204
14.930419555269873 44.493247417844621 10.834992483526603
9.954715451405400 29.699819686543627 6.088715042465545
9.925005439924689 29.628340328996991 4.948960736012744
10.605273248743615 31.695820684299512 4.103828269824936
9.910045004150888 29.652396542875611 2.735295830392504
10.825682020401624 32.410940350964246 1.790831750721052
9.983960431350447 29.925674821315773 0.550658327909169
10.404199125741611 30.986996830988648 -0.570554071247673
10.036515789897507 29.926535410542584 -1.654234904926968
6.574719476070613 19.626994401544941 -1.810922022810841
3.889010986086369 11.616290558404263 -1.504111436306330
2.919973209879628 8.731944446667084 -1.458282083105032
2.243463213553047 6.716690205477952 -1.376496092646394
1.867205385496550 5.593462951853139 -1.361403780889071
1.560664355843357 4.680617554757490 -1.322047682383676
nan nan nan
15.012349978835728 44.224956932645014 10.782353936810138
10.049500663059845 29.638860315142118 6.083372390595001
10.056896485020818 29.677704504515294 4.963039837866364
11.025160639770895 32.572433988763443 4.222285271614740
11.736434039894570 34.713696734822825 3.205936841229858
10.935554578653825 32.363493413440864 1.790308391158622
10.154865118688987 30.087689820910516 0.554288428448124
10.091705624536417 29.712168037053530 -0.547726323627706
10.138992743823408 29.885644979370930 -1.653920889189511
6.703298213039532 19.781301703616055 -1.827307302447401
3.942271204867502 11.640248380733720 -1.508986210042536
2.951068599491600 8.723569847659407 -1.458594952035113
2.281978475593783 6.753456793920051 -1.385654924424468
1.900435896204858 5.627529764597848 -1.371301627280201
1.576375791872333 4.673310786244434 -1.321530044293471
13.036161628951728 37.945799308353372 10.750825495468508
11.503757166711756 33.504288984094025 8.178320531725557
11.228630463819076 32.740196711687510 6.727925176976969
10.078444297990961 29.403231187180097 4.922992614816065
11.452579398716512 33.450247134618486 4.341229750778163
11.089039711673699 32.425364293638808 2.998157550519441
10.851440582297805 31.748699641150942 1.758383457850427
nan nan nan
10.166771416381478 29.593547453656200 -0.546190511861225
8.747701640174521 25.491858806052193 -1.412442787084568
6.823343180969575 19.906677170355600 -1.841077909801531
3.984165904182914 11.630172278816193 -1.509473687416157
2.964873711167183 8.664621897193483 -1.450460359853021
2.295379181906628 6.715726235260173 -1.379549036572419
1.921957893606546 5.626394064723199 -1.372651333606264
1.584569087693619 4.644011175313555 -1.314800749120805
14.872858124269875 42.805228367281238 12.142236681939659
11.621278145029525 33.465770160964446 8.178770433834245
11.312607656471693 32.613624604865322 6.709989131411575
10.073067514264800 29.072871957248115 4.873246454933272
11.588759510166467 33.466340706155435 4.348541911382473
10.206989360341337 29.509336158299075 2.731809600682598
10.792955886267173 31.238711743388784 1.732110807816469
nan nan nan
11.670585506319366 33.588841741365499 -0.620677382535551
8.435859455163946 24.306415469644222 -1.348383576643205
6.826223414335919 19.690725171930900 -1.823298138281009
4.026688163945989 11.621821181719005 -1.510204903476587
2.982825819457490 8.618751654929627 -1.444515850181492
2.326504743122694 6.729939086449020 -1.384128452461456
1.930131180332963 5.586496619157556 -1.364553095649885
1.602030507002581 4.642104028256213 -1.315836025301216
13.670014224922671 38.883079886920747 11.043808654524561
11.705094418775673 33.331228784180894 8.155825426291170
13.296661121956936 37.905666611967199 7.808285708798968
10.464501207915596 29.848519630317401 5.009657308448354
11.708132643334444 33.433178625989775 4.349516866129713
11.240801553636885 32.134645328047363 2.978460352658470
11.642974531945846 33.303005955050835 1.848924662150720
16.277644521327080 46.612015509850480 0.861799829873060
nan nan nan
8.489565665857564 24.188246718075945 -1.343463996756368
6.852728422174694 19.546445145019771 -1.812142203209309
4.065918501418916 11.603947777939212 -1.509717426102967
3.058572256235534 8.738800483351600 -1.466416675287124
2.333784601941930 6.675445547271901 -1.374588002692629
1.954119551030349 5.592602873156443 -1.367702410410699
1.623954069673003 4.652899176532684 -1.320494768113061
11.628418998072990 32.746795640551120 9.311273966608287
11.786230068198424 33.209587133633711 8.135579831400223
11.200436965316134 31.594005371262103 6.515745574118252
10.645230117864626 30.044536632827445 5.048453055778331
10.928790934001965 30.879080218437245 4.021932071056677
nan nan nan
10.996028602014361 31.138157387352507 1.730645401041666
nan nan nan
11.062499431993633 31.153109312043256 -0.577046366442342
8.169787109647837 23.032433702559427 -1.280765521177321
6.928820908953037 19.555539083367290 -1.815105498462729
4.100400398572477 11.579173521651478 -1.508254993982105
3.077653181968345 8.700675312174326 -1.461723641335917
2.355908345159695 6.667669734776941 -1.374588002692629
1.964867751806413 5.564041665904142 -1.362303585106446
1.640659990373268 4.651132027584047 -1.321530044293471
12.915746333596818 35.973333134103918 10.241469614706746
16.504158047396498 45.993126027709629 11.281295375344829
11.362985850478671 31.700717156210214 6.545893395387745
10.955234392888780 30.579964759002280 5.144816686243113
11.104734035863187 31.031383807880150 4.046793417111328
nan nan nan
10.942792346569645 30.646276055839955 1.705419470132568
nan nan nan
16.798660312059813 46.788144332042577 -0.867733648061736
8.263620554295647 23.041375658255308 -1.282858959427039
7.011823219023698 19.572498336802628 -1.818940351143626
4.171575875307088 11.650759581794208 -1.519466973575379
3.106009733762010 8.684299316388346 -1.460785034545676
2.382471068895480 6.668649496922540 -1.376496092646394
1.979690742852692 5.544302321488663 -1.359154270345632
1.659481457449240 4.652655021911527 -1.323600596654291
11.792547176660870 32.470271110408618 9.256404329046552
11.887527906193522 32.767440017843853 8.047399018097426
11.638790083999528 32.116770276568531 6.640153039103760
11.086837976952051 30.627051799354952 5.158895788096734
11.927515989174202 32.967375867336088 4.304668947756619
nan nan nan
13.843060735728510 38.324609004520212 2.135516358537080
11.035434518661543 30.585085735036309 0.567552257340460
nan nan nan
8.335149098251343 22.987980507438170 -1.281498224564723
7.077387287337237 19.540410056992766 -1.818243105201645
4.235868169948220 11.701456639479854 -1.527997827613739
3.134289484319967 8.667831437900197 -1.459846427755435
2.404400559456087 6.656599511520873 -1.375732856664888
2.004987316514987 5.553854731621100 -1.363203389323822
1.673090772011365 4.639564808324172 -1.321530044293471
11.997697992326589 32.679171867399134 9.327838385494847
13.195510198953743 35.980572736530831 8.847774869452898
11.683969468942619 31.893446569671770 6.602372858019204
11.172529202078531 30.513867882165005 5.146693899823595
nan nan nan
nan nan nan
11.117445106047690 30.462190617767188 1.699453171120872
nan nan nan
11.339901777698378 30.904145919772567 -0.574603029541122
nan nan nan
7.149663112367175 19.526811849565231 -1.819288974114617
4.252811202255090 11.621352803963369 -1.519466973575379
3.134685537536189 8.575204641924087 -1.446080194831894
2.431662204128924 6.659230941815893 -1.378022564609407
2.040396220224613 5.590757409041998 -1.374001039932327
1.689275682434033 4.633696365836537 -1.321530044293471
12.777772590517255 34.431951991908655 9.840817732888043
11.719061385938721 31.612895166560556 7.783756382406418
12.483810478423525 33.711955043704243 6.987807028679824
10.900836647838638 29.468790606147738 4.976493201859824
nan nan nan
nan nan nan
11.159420718441869 30.248933468806030 1.689718683259684
nan nan nan
11.450489899965236 30.871873541112684 -0.574742648792621
11.284913436399215 30.458063790634043 -1.702279312757991
7.218472404632326 19.503604423180732 -1.819463285600112
4.299549677910915 11.623193086212206 -1.521660621756671
3.165968853869461 8.567916150420830 -1.446705932692055
2.458291629957218 6.659911234444431 -1.379930654563172
2.048432807317493 5.552520087486940 -1.366352704084636
1.704771995460810 4.625958783446912 -1.321012406203266
12.816471495523730 34.170083201354473 9.778701162063440
11.815664840012232 31.535298335983459 7.774758340232662
11.745305190992728 31.380848073436368 6.513074248182980
10.993950430922395 29.404656125711114 4.972113036838698
nan nan nan
nan nan nan
11.126772449662406 29.839260967184831 1.668993644587479
nan nan nan
8.513157081264884 22.709039785315326 -0.423325570542749
11.400268814338348 30.442801867583881 -1.703640047620308
7.328393222310904 19.590254065365983 -1.829921974729831
4.333144059207824 11.589520237038576 -1.519223234888569
3.153697293795921 8.443930830197690 -1.427620927957147
2.483582868351408 6.656807836775447 -1.381075508535431
2.069163979697989 5.548987745856198 -1.367252508302012
1.721583556448882 4.621790172670598 -1.321530044293471
12.552278082886895 33.148633084644921 9.497623679082100
11.904999421125234 31.455846106792087 7.764860493841533
11.835417622528112 31.304998826663759 6.505441888367919
11.078138790659152 29.332925648401790 4.966168527167169
11.517955000209637 30.513591696376029 4.004626624293146
nan nan nan
11.235518161331893 29.828366066616905 1.670459051362281
nan nan nan
nan nan nan
9.632820547380714 25.465632847681015 -1.426887511007620
7.396837849507474 19.575163367663233 -1.830793532157307
4.388385014180059 11.619656854817684 -1.525072963372016
3.184470150724911 8.440819244193721 -1.428872403677469
2.499412760104602 6.632001302535000 -1.377640946618653
2.088240630467372 5.543919298278249 -1.367702410410699
1.740982521444205 4.626904328427943 -1.324635872834701
12.581130483459440 32.860648956324312 9.428260174994625
