# This PCD file was generated using the MATLABÂ® pcwrite function
# from Computer Vision ToolboxÂ®.
# .PCD v.7 - Point Cloud Data file format
VERSION .7
FIELDS x y z
SIZE 8 8 8
TYPE F F F
COUNT 1 1 1
WIDTH 893
HEIGHT 1
VIEWPOINT 0 0 0 1 0 0 0
POINTS 893
DATA ascii
13.327577367119604 10.792459353064610 -0.299343675212287
11.169302002086690 9.051179723824225 -0.753428426073419
9.594510182335776 7.780578025611829 -1.080731210070961
8.400263922820004 6.814545849882651 -1.328132104429297
6.461208791958702 5.245266918076711 -1.318116802428985
5.200704065436913 4.224990584008722 -1.302462202440295
4.393268613872019 3.570312554876211 -1.306965625737856
3.643536976980017 2.963134591942859 -1.258378197288456
27.326833475875812 21.963486685353150 9.394096061041093
25.430554352727238 20.453999391747143 7.534510614193414
21.945279256879864 17.663384059198073 5.475836549316083
21.108348840713067 16.995824575854314 4.292248851773854
19.821208337274069 15.970864361600363 3.125461180968412
17.068755384852910 13.762914763488855 1.918297897875956
16.739631974963459 13.502357083375349 1.127107153648038
19.809818514029860 15.990217851066912 0.444373172706113
12.087249284977222 9.718397937337802 -0.270721728655142
11.219501702645616 9.027160841945813 -0.754684489023250
9.677478433789506 7.792022343313878 -1.087006423548793
8.397718430264741 6.764013268323577 -1.323988546753522
6.501010443727279 5.240036353083261 -1.322496967450112
5.171105322447893 4.171066047560863 -1.291395280708455
4.431486657268304 3.575758959781454 -1.314613961585547
3.667385290086854 2.961321127807086 -1.263036940100301
25.624418557612632 20.470353379828140 8.787941857410990
25.445971894042032 20.335075697033560 7.520113746715407
20.875253572151244 16.694343025042759 5.195728944103315
26.938323168681375 21.550806384167903 5.463942994925183
17.336041369779277 13.878855398136967 2.726704689346770
16.168071345080445 12.953067666981470 1.812490826180299
17.042970818086133 13.663764568881858 1.144796706858153
19.797556696021235 15.877860191563775 0.442976980191130
13.664464468254117 10.916010280676891 -0.305277493400963
10.355469613138293 8.278505973937609 -0.694812155081322
9.617897306466547 7.694370632372828 -1.077593603332046
8.325934165380746 6.663176539655000 -1.309364225544905
6.535942710004967 5.234404849629525 -1.326251394611077
5.158140097588551 4.133927762278747 -1.284907774865653
4.415330596744043 3.539878018430246 -1.306515723629168
3.655574791602330 2.932860106061799 -1.255790006837431
25.747178371291952 20.421599542750311 8.805541552477960
21.660656208214192 17.186498439446922 6.383661020170201
21.800564527723726 17.309911785352362 5.410961490888058
21.364457123229403 16.969717720011179 4.321345662271338
19.513335546655679 15.510489873191910 3.060626690276874
19.609256188167233 15.597906671209097 2.192141241589098
20.065823544591527 15.972515960141079 1.344092028231284
20.228298376719842 16.107615224699103 0.451354135281026
11.863162357972248 9.409370902376759 -0.264299243086221
10.232559781161244 8.121864712407813 -0.684658979570191
9.719583110276393 7.720232757903418 -1.085960554635821
8.344479678801616 6.630368205202066 -1.308633009484474
6.495420274376015 5.164839881903876 -1.314362375268020
5.177147509883426 4.119564576113227 -1.286052628837912
4.471875791971587 3.559639966947029 -1.319562884781112
3.677878456193165 2.929711189792555 -1.259931111559071
25.715070700810184 20.228498860829422 8.766718695712582
21.708113140023897 17.088736386095537 6.378262194865948
21.049502380168718 16.582178887233745 5.208703955788921
21.451331495032157 16.910866187896556 4.326351565152625
16.834090438521621 13.275691550097850 2.632377817551186
20.016213605280850 15.796511291401142 2.230838391369058
20.021613863572316 15.806444691752052 1.336869666269757
20.220957625945758 15.975281285959783 0.449818323514545
12.284215437395714 9.666724339810324 -0.272850922240490
12.372578796396883 9.743254644279110 -0.825338029951224
9.627094907049578 7.586665575019027 -1.072364258767186
8.401055421149721 6.622858077460935 -1.313507783220680
6.563280867501622 5.177789286566790 -1.324061312100514
5.196009154864284 4.102088467185416 -1.286815864819418
4.476334877951707 3.535196268413602 -1.316863472128986
3.663334490256878 2.895204133160930 -1.251131264025585
25.767254344731267 20.124344062851829 8.760507038630122
21.721569145930260 16.976855853133461 6.364765131605316
21.800058490928429 17.050461847881479 5.379668815646304
27.250843599204913 21.321346617923584 5.480212179289368
22.164809367294215 17.354456649800589 3.456458317656793
19.999089512736045 15.670019324459513 2.222820063036274
nan nan nan
11.783304624782996 9.242612457464599 0.261402143617632
12.599948646148095 9.844158771958279 -0.279098883745038
9.659300919694894 7.552104313853619 -0.642580870750864
9.766498722764798 7.641411310938346 -1.084914685722849
8.410053465291810 6.582480987452914 -1.311314135039387
6.550212117608377 5.130486332424167 -1.317803933498905
5.204115799816948 4.079081504298048 -1.285289392856406
4.482513617018576 3.514739635826336 -1.315063863694235
3.623264077688194 2.843044842755123 -1.234049207048819
26.506480801608557 20.567944843115164 8.989820712590955
25.976760868877054 20.171435095924707 7.592997888322818
25.499644729421579 19.815217683407813 6.277234329897571
21.584847227371533 16.785201483815968 4.330731730173752
25.738321393666823 20.022311290064536 4.003895408232715
17.388120162339021 13.536282227140047 1.927885029578199
19.992496359994927 15.574944819891149 1.328181897533429
11.788623686025025 9.187110424951976 0.260878571424514
11.701983601960460 9.083533168566287 -0.258574853774793
nan nan nan
9.652031209032263 7.503085116868758 -1.069575274999261
8.389948284966046 6.524344180827464 -1.304976929182319
6.507057562898789 5.063782391662089 -1.305914914155847
5.238590381679757 4.079599948291043 -1.290632044726949
4.470473830761874 3.482675798916652 -1.308315332063919
3.645889952602678 2.842337958171555 -1.238707949860664
23.872402453050743 18.390863204221645 8.074636569108442
26.008430461920824 20.050890822005215 7.581750335605626
22.553082262565159 17.399586014591595 5.536895427836577
21.621416657101946 16.692853556977489 4.326351565152625
22.411390494548304 17.308998163202624 3.476932367348858
16.744790355505913 12.941844697452304 1.851536598931250
25.956967368221886 20.076301258724484 1.719759522143134
10.533226513991902 8.149815871465711 0.232466053744616
11.784304939919203 9.081691320891961 -0.259691807786779
10.669180381633350 8.228247271418430 -0.706116721629798
9.671853957850789 7.464478332543051 -1.068878029057280
8.304252568677192 6.411313108086733 -1.288158959792409
6.521567468193284 5.038622224780140 -1.305289176295686
5.262117908675571 4.068494126413945 -1.292921752671468
4.516515807693712 3.493279114957787 -1.318213178455049
3.732174419549689 2.888716428153010 -1.264589854370916
24.493671512316752 18.726825914499223 8.261503919672462
26.195129413679307 20.034934091104237 7.613693385322455
25.945101044877568 19.858062018691442 6.350886602112917
31.960333782114319 24.479743887329455 6.376268795039810
26.669109766610539 20.434362521667207 4.125277274264242
nan nan nan
26.628062851701490 20.432431263710551 1.759011489325342
14.406345457897437 11.058373029248632 0.317005510526818
11.801614715030752 9.023015768266468 -0.259307854845158
10.634074268095056 8.136247095478744 -0.701720501305391
9.694116376144695 7.422441208951839 -1.068180783115299
8.350872036651731 6.396278902678342 -1.291571301407753
6.498535635675137 4.981097886773582 -1.296841715183514
5.234083611913387 4.014802415130054 -1.282236448930381
4.517527393152886 3.466420687700448 -1.314613961585547
3.689610692139116 2.833184638231646 -1.246472521213740
24.415941001694424 18.525992250799419 8.212328301102984
21.618144471424280 16.415012466501221 6.266686471911392
26.369099941732138 20.037006443835878 6.437513886013869
21.861129947810369 16.623589497387663 4.349816734908660
22.464992137031224 17.088965869151370 3.465720387755584
22.013674112594050 16.757785285448030 2.420489287587963
20.498266985318118 15.615494818636495 1.350477014892923
nan nan nan
11.839410287137643 8.986601530111606 -0.259447474096657
11.112509047599097 8.440968936775301 -0.731342652538897
9.796101978787913 7.446431024101726 -1.076547734419074
8.351026416004528 6.350268048948886 -1.288158959792409
6.471867703635462 4.924888909599162 -1.288081385141261
5.280866412315944 4.021485766676341 -1.290250426736196
4.538900963674254 3.457715939173067 -1.317313374237673
3.780903258829863 2.882362683021967 -1.273907339994607
24.483140689727666 18.462772502258424 8.216469405824624
27.246858840380821 20.554357182438000 7.879585531556903
22.665107079714662 17.110414088679310 5.520104236243441
22.040914870999057 16.651278579719001 4.375159118245177
26.895902400779033 20.326456671211769 4.139414118099239
22.050320550476183 16.676526454065215 2.418746172733009
23.181195545539115 17.538161383389756 1.523395014319609
26.986599397464598 20.432025949961805 0.590833767527796
10.615843723211299 8.005423408092927 -0.232082100802996
10.636785868796492 8.027041816733137 -0.698371000105842
9.795598205412263 7.397608233488299 -1.073933062136644
8.302827235766419 6.272547673778037 -1.277678196259566
6.468398895995244 4.890237211761064 -1.284326957980296
5.263726786749227 3.982369661768563 -1.282999684911887
4.437862398248975 3.358764779241920 -1.284920422412157
3.800719794788191 2.878635107064913 -1.277530806626042
23.160169375082528 17.332325564012727 7.751112762730291
28.644275973912936 21.452057139805962 8.262002323941473
21.736528638921790 16.290604785368682 5.280066520059748
21.869462421770816 16.396194653970024 4.329167385523349
28.541852017828973 21.414253304319509 4.381202895415052
21.990495193739797 16.510930826449222 2.405847122806356
23.309346586388390 17.507514948129241 1.527791234644016
27.073741034596896 20.349715606613692 0.591182815656542
11.732267598510447 8.783246465193150 -0.255817373557702
11.914714772130660 8.926325432604120 -0.780224435669807
9.746437452918284 7.307197706959104 -1.065740422318364
nan nan nan
6.468050862246543 4.854584908733244 -1.280885399749411
5.299572683559070 3.980478287207267 -1.288342336782430
4.415284318959962 3.317499934194871 -1.275022576021027
3.787584021606710 2.847935565814343 -1.269766235272967
24.313737228139711 18.070146411060755 8.117082892505255
21.608047795946888 16.065113527096770 6.216297435738365
21.325452526421635 15.866571816997345 5.166725976806080
22.082156598941083 16.441553285036065 4.360454278531396
28.142008047691505 20.961129125738690 4.308568766745584
20.849908155391645 15.541042578743957 2.275113508684869
18.598904131810805 13.868246169849760 1.215868935436071
14.494647903099679 10.815788129098229 0.315679127637584
11.539763969639802 8.576436543829077 -0.250965604568137
10.481021963605063 7.795252657758794 -0.684554307657705
9.744714191427231 7.252908803065450 -1.062777127064944
8.238144256361418 6.133816104142440 -1.261103965556466
6.472285000915256 4.822535555367478 -1.278382448308767
5.337043129911589 3.979558549265621 -1.294066606643727
4.568983818623299 3.408097194901443 -1.315963667911610
3.839300937513944 2.865898392838827 -1.283742463708503
23.145344482903685 17.070455845987851 7.706078248882453
27.565656518480989 20.345442051755928 7.909728972838981
21.387024051749091 15.796701074455333 5.168252448769093
25.152931910178555 18.585029627096819 4.953340901033870
23.263771676660852 17.201721789154423 3.552491360260049
22.034756187798692 16.304861876714146 2.398177417444562
27.065409140318600 20.034660476394723 1.764768444512066
14.554809584591291 10.781790754864566 0.316167795017828
11.650087420646692 8.595463938613321 -0.252710845211865
10.469606532677856 7.730147573831425 -0.682042181758044
9.505572427169369 7.023489182585843 -1.034015731958217
8.307395523697208 6.140420518478424 -1.268416126160775
6.504960611594611 4.811660903033929 -1.281511137609571
5.335122149996433 3.949223908684402 -1.290250426736196
4.576154151889383 3.388648596439283 -1.314613961585547
3.866354825021757 2.865131397355325 -1.289436482700758
23.192166092352256 16.974099633396833 7.700901867980402
21.753532018517337 15.927009864272430 6.224395673694745
22.017639189043781 16.132186416572079 5.305634925440205
25.227252629052838 18.497386928162477 4.954592376754192
26.851106477341929 19.695252690946482 4.088716471242697
22.018499179659479 16.162365449515704 2.389636154655292
nan nan nan
9.628141447024177 7.075160532722378 0.208556256925538
11.655573198563403 8.530590026345351 -0.252117463392998
10.537882043270582 7.718214005972021 -0.684554307657705
9.726912381015529 7.129457192571799 -1.055107421703150
8.292490940627921 6.080305920844767 -1.262566397677328
6.497906080292168 4.767950393766002 -1.276505234728284
5.307520698508178 3.897335548185060 -1.279946740985862
4.587561317491733 3.369898809019763 -1.314164059476860
3.850866523389422 2.830812750378612 -1.280636635167273
23.243281807412959 16.881035395772162 7.697278401348967
24.030091921390426 17.465292471832601 6.858307744835757
21.956326962775595 15.969776775795131 5.277395194124477
25.349187773499509 18.444315413201352 4.965229920376928
26.905249397041867 19.590888445896898 4.086522823061405
22.098935821510430 16.103008276026525 2.392250826937721
23.191141907200304 16.905072394460230 1.504030710509720
9.533230637354833 6.954300296533641 0.205973300772820
11.670719416981958 8.479273988855324 -0.251803320077127
11.034842770300784 8.023169214945916 -0.715013834191099
9.688908273756914 7.049743834300300 -1.048309273768832
8.321689421229577 6.057163727362863 -1.263785091111379
6.524089907005006 4.752217713991175 -1.278382448308767
5.357581908391551 3.905383804860838 -1.288723954773184
4.569379826635403 3.332049079908026 -1.305615919411792
3.829514059592340 2.794577776419554 -1.270283873363172
24.961546812456785 18.016084194465794 8.248562967417337
26.555892529147641 19.173859026295226 7.561954642823366
23.105992421979018 16.695238844028662 5.541093225734861
25.474234218667210 18.419950387498439 4.978996153300468
49.907466885170173 36.100438120294434 7.562967713036642
nan nan nan
36.306729312375992 26.291347340653850 2.349256403833262
15.664357092952102 11.351607833388003 0.337669159748561
11.789724118851138 8.509274843846933 -0.253792894410977
11.199235417856297 8.089034765617116 -0.724015618664885
9.530157685176789 6.888549126251474 -1.028786387393357
8.306896514941574 6.006564137153990 -1.258666578688363
6.490977034472488 4.696957453976596 -1.268996380406353
5.380955392587682 3.896593549748997 -1.291395280708455
4.595606818180776 3.329109913381133 -1.310114940498670
3.827325948809868 2.774596095936278 -1.266660406731737
25.179758993822091 18.033584929171614 8.298773862167225
24.519203759845400 17.573451586064678 6.964484642486060
23.237513892864456 16.667117577592364 5.558647653309504
27.960273258591624 20.061910329975852 5.450489630931724
29.637106932329914 21.280738609953072 4.479917063573221
nan nan nan
36.450177656140987 26.201757542030737 2.352605905032811
15.567528254558127 11.198768462660718 0.334737155467098
11.616161778084418 8.322489670995907 -0.249429792801656
11.837711646218878 8.487475583296662 -0.763372257759579
9.478061647111920 6.800649661315951 -1.020593747575077
8.276207381983832 5.940489817097071 -1.250866940710434
6.464014885748039 4.643155390345454 -1.260548919294180
5.391336006646395 3.875494934658287 -1.290632044726949
4.626185294966802 3.326700640066062 -1.315513765802923
3.840123854233060 2.763476151457823 -1.267695682912146
25.179598090162624 17.907440558446293 8.279103614739434
24.527997102619448 17.450476428151038 6.949637872899366
25.875238666531615 18.422580533733818 6.174197472394238
27.391177056006907 19.516305789116426 5.326906403549941
18.673770297790536 13.310038512412232 2.815669310032527
29.842202248912557 21.286235994929758 3.206982710142830
14.318395518791929 10.216983242632914 0.921845533263213
15.521900918814984 11.083931195129347 0.332922105197620
12.073727466609130 8.586696108213655 -0.258609758587667
11.211499399477866 7.979383870558673 -0.721189477027766
9.654289792082768 6.876173871246253 -1.036979027211637
8.287192952848265 5.904652854840670 -1.249404508589572
6.496266991633868 4.632031743732323 -1.263677608594985
5.374466942645885 3.834985464609549 -1.283381302902640
4.604461269142702 3.286755922002851 -1.306065821520480
3.805731719307284 2.718612750662412 -1.253201816386406
24.590150974206296 17.359301459082904 8.065319083484750
23.636856027541171 16.692509479240826 6.680596411904103
26.224770800221016 18.533835599610068 6.242125474748287
26.720483106219351 18.898159717516219 5.183612433573090
18.946988462446839 13.405288718326206 2.849792726185969
17.941988855257346 12.703636228293332 1.923352930955321
29.661398922310287 21.009214216866972 1.904924135330670
14.904665125914118 10.564811896858917 0.318890370422044
11.922293207355148 8.416486831949376 -0.254735324358590
10.709129420957632 7.565662093761984 -0.687171105469852
9.686367637176312 6.848183128496755 -1.037850584639113
8.265615119257250 5.845886620623366 -1.243067302732504
6.512396222313891 4.609327320241796 -1.263677608594985
5.363789482109475 3.799180292843677 -1.277657033041344
4.590465386078411 3.252636937651313 -1.298867387781476
3.805743000819000 2.698607091239958 -1.250095987845175
24.604402623385617 17.228188190041365 8.048237026507985
23.755044318622801 16.639640658177424 6.695893083599486
28.112345938127028 19.706421056541885 6.673353804299278
19.750985981677363 13.850348628195059 3.820755374142599
29.487045520104598 20.693103665949401 4.423125949546423
17.984113042773341 12.630070197019318 1.922655685013339
19.764708488608846 13.885716913764753 1.265902109604325
10.700091641479942 7.522940669751923 0.228312381012543
12.370588089455278 8.661979032323837 -0.263601146828730
11.498681834882124 8.057446887058189 -0.735843544775790
9.627765177878150 6.751455565191188 -1.028786387393357
8.252248565435000 5.789025463708350 -1.237705051622678
6.533280214315513 4.586557607768137 -1.264303346455146
5.330144720698147 3.744698827390680 -1.266208493318751
4.577410965990420 3.217058308702762 -1.291668954042473
3.793954643299999 2.668414958754776 -1.242849054582305
27.180446710499741 18.883868016980255 8.868175761392772
24.577788650353401 17.088370619044994 6.910946291552221
28.941608794196505 20.137424130618182 6.853477495934736
19.768407851529592 13.759878817921935 3.814810864471070
20.036726071670188 13.957028038797070 2.998229586453438
18.005208213808377 12.551265843971747 1.920215324216405
18.995568932630373 13.246564235814766 1.213670825273867
15.486783200743213 10.807748464388643 0.329641052787411
12.366265658913587 8.594778530661516 -0.262868145758364
11.643152649353176 8.098230812082457 -0.743275250562288
9.659449773882335 6.723498388674744 -1.029657944820834
8.189323307348895 5.702333072074089 -1.225274378595353
6.528181379398413 4.549042643792047 -1.260236050364100
5.346404411442962 3.728316309871945 -1.266971729300258
4.574228342118793 3.191025890604180 -1.287619835064283
3.825422397406259 2.670637283982223 -1.250095987845175
24.465345025541843 16.890118266867567 7.965932570165384
24.474209048744225 16.902545893869643 6.866855884900823
25.416082599222371 17.566135686818150 6.005522320481371
19.839160251969773 13.716804659200312 3.820129636282438
19.136932088048937 13.241159507002667 2.857348625477088
18.016703733266464 12.475357118942110 1.917252028962984
18.275278449180853 12.659122262993733 1.165103057880416
11.808126217309281 8.185484657003091 0.250791080503764
10.581372171675810 7.305052400395795 -0.224437946783466
9.885638014902952 6.829835657455686 -0.629706225515100
9.593666971832194 6.633065822681599 -1.020419436089582
8.003119361808182 5.535425242134536 -1.194807042744066
6.555434302879638 4.537505406492663 -1.262739001804744
5.303218845048815 3.673492359285749 -1.253996717614652
4.593841202679428 3.183299427251131 -1.290319247716410
3.890943278060006 2.698237602650984 -1.268730959092557
24.450847162888632 16.754383891250725 7.942121218015951
24.547527035102007 16.826928326007888 6.870905003879013
25.451341986142694 17.459540588810096 5.999416432629322
19.336405722142981 13.269677140966504 3.714379937915242
19.088126953368519 13.109098221342988 2.843211781642091
18.063425052883144 12.414648085973921 1.917600651933975
18.200858378276216 12.513781110234680 1.157566680181432
23.220216685475091 15.976720235243500 0.491983337467022
9.970068755725670 6.831761625385657 -0.210964689013883
10.652295305544476 7.304707329151276 -0.676913258046235
9.569121980593453 6.566843964159873 -1.015364403010218
8.177865573556909 5.614189050644720 -1.217962217991044
6.532157496772138 4.487749069880563 -1.255230147482813
5.296596114525384 3.641610908065727 -1.249417301725615
4.579235045895837 3.149575109626267 -1.283120813977406
3.889198903280451 2.676971969080152 -1.265107492461121
11.298536379868258 7.684244222287407 3.661254212020259
24.417605035417914 16.612883760908758 6.818266457162549
19.390908112593554 13.202799393258248 4.559953371508668
24.982830253717186 17.022970169215945 4.788146105951387
18.733543647424835 12.769577149302867 2.783739542060379
18.137922493388064 12.372851834627888 1.920912570158386
18.501233172826876 12.630151174253346 1.174000170441716
24.512709045234697 16.740250405286542 0.518127042310073
12.259173277777395 8.337582697669689 -0.258784282652040
10.918790660174176 7.431551123868301 -0.692195357269175
9.532705300368772 6.493023383901368 -1.009089189532386
8.167884524572745 5.565488505319146 -1.213574921628459
6.536358521296702 4.457130004458737 -1.253040064972249
5.228193041827867 3.567768750190218 -1.230336402187961
4.590201216442649 3.133571408043286 -1.283120813977406
3.868211944961058 2.642674332777371 -1.255272368747226
11.637294125805955 7.852409508492948 3.761676001520037
24.362395502048820 16.451209482784890 6.786773309554407
24.347741665485533 16.453691507306196 5.712058085592245
24.940318507846939 16.860483996768718 4.768122494426237
18.820751937872846 12.733028085800566 2.790076747917447
19.136246290553228 12.956212767927559 2.021838920260174
18.687961444113888 12.657458476375769 1.182897283003016
15.038229672249820 10.193134426165855 0.317110224965441
12.720791984628120 8.586744659850694 -0.267894438812302
10.972800479457558 7.412398305747152 -0.693974779781435
9.532203732445279 6.444086447182553 -1.006648828735452
8.142864258582456 5.506917759108257 -1.206993977084581
6.556784759745447 4.437608264046594 -1.253978671762491
5.198352002513085 3.520872237143793 -1.220414334428381
4.576912062778526 3.101132981097153 -1.276372282347090
3.800664239326861 2.577114634086019 -1.230425740417384
11.372495746379888 7.616097071173527 3.667465869102719
24.529382183359392 16.433392632164722 6.816466848727798
24.500832168978498 16.426659500466645 5.733810311065172
25.000307203876151 16.767859585732598 4.767809625496157
19.035413913282135 12.776804947917517 2.814938093972096
29.032588673323350 19.501735624061666 3.059863816384783
16.542400057755302 11.120222907120784 1.044625686609159
18.858880056115332 12.682199238912093 0.396693198319454
12.767132228694532 8.550077357047840 -0.268208582128173
10.601708346225642 7.105266716267821 -0.668853520784822
9.492880745979019 6.366933418642211 -1.000024992286630
8.120134414780125 5.448279031364761 -1.200656771227513
6.535286024277521 4.388219401289014 -1.246782686370640
5.204703627069059 3.497415693495526 -1.218887862465368
4.544580750986189 3.054983000890761 -1.264224925412521
3.854965402403042 2.593360159816630 -1.244919606943125
11.495545221034758 7.640514324940035 3.698524154515022
24.524930707861891 16.306667643803276 6.799370568597664
24.724739336580054 16.451969710700446 5.772735346121987
18.828135090850910 12.533080341872839 3.582349249421287
30.882372544367666 20.572628352266900 4.556207272544844
18.520600698018011 12.347035603474046 1.947407915953674
29.364192976890063 19.590887695671718 1.849971381275578
18.896381228381241 12.611851796251397 0.396553579067956
12.720291589005464 8.454542019057195 -0.266602960735943
10.807710647142827 7.188785512589656 -0.680262759245784
9.455340194174431 6.294013599409118 -0.993749778808798
8.036661983156703 5.351684901628576 -1.185544972645275
6.509468821890716 4.337993935991712 -1.238960963118628
5.174413400627028 3.450904760587118 -1.208965794705788
4.563322312809389 3.044508494402011 -1.266474435955960
3.806155015239343 2.541270153333754 -1.226284635695743
10.519098037413269 6.938701646951951 3.376553262407486
24.269866191699936 16.021267218216675 6.713889167946995
24.977367160674120 16.500830859792153 5.818911123003111
26.509955261303496 17.526601971001242 5.033435347134469
30.332839477439752 20.061645245613786 4.465292742364603
18.674420029341622 12.360328981124844 1.959261096967356
32.416605166537408 21.464220232109469 2.037543448450289
16.646057915428006 11.030323938040505 0.348559461365426
12.808343974799143 8.451963079265793 -0.267859533999427
10.859822965967075 7.171616805864408 -0.682042181758044
9.454551403183325 6.248343282719523 -0.991483729497359
8.003031294375379 5.291066796432128 -1.177989073354156
6.510638905924859 4.307663940236621 -1.236458011677985
5.171096095011741 3.423971907437990 -1.205531232789010
4.552272710281851 3.015369296484851 -1.260625708543019
3.808120447537295 2.524364976625368 -1.224214083334923
11.603560377746224 7.596049900742216 3.716123849581993
25.046137140547973 16.408469107722294 6.912745899986971
33.101185582882614 21.702088235310519 7.693800311573040
24.945349370332529 16.361113672014724 4.724946582075133
18.228333453123980 11.964670738496144 2.677225735924280
18.667494246513563 12.262251769841697 1.954031752402496
18.685463057735038 12.283394031336059 1.171906732191998
16.467257461200635 10.829313213823827 0.344021835691733
12.861189278824803 8.422539734370995 -0.268348201379671
10.510604867033839 6.888431829387183 -0.658595673361205
9.441318234530497 6.192355879871155 -0.987823188301958
8.028090707700986 5.267454737287070 -1.178964028101397
6.514077228689139 4.277321654692618 -1.234267929167422
5.168250054581738 3.396197133146685 -1.202096670872232
4.549743397141377 2.990896758398627 -1.257026491673518
3.829820245174577 2.519550837277445 -1.228355188056564
25.203630880005807 16.367429269623031 8.052378131229625
11.651914283534685 7.572625504906550 3.208251937052203
24.668547944830994 16.044438347387164 5.720072063398060
18.966126627947745 12.345003256158718 3.584226463001770
18.719549628947892 12.189158822139397 2.742791442676249
40.476016742299961 26.375918000382747 4.226704900290430
15.700644334323989 10.239026517321186 0.982345898680056
16.468317848824398 10.743754647746423 0.343219024995618
nan nan nan
11.125195991260977 7.233071346458108 -0.695440186556238
nan nan nan
8.045679265909785 5.236912031859214 -1.178720289414587
6.503227658866435 4.236166768162640 -1.229262026286134
5.177373715343062 3.375087464035329 -1.201333434890726
4.498647230019817 2.933750188809028 -1.239930211543384
3.842264727820898 2.507608591424625 -1.229390464236974
25.185913221830148 16.231213468385263 8.028566779080194
11.758522878798450 7.583661391019496 3.230297140377901
24.731001209747411 15.962489948740021 5.721598535361073
nan nan nan
18.288474101893630 11.817765623031388 2.673569655622125
19.112792641908335 12.359888700703403 1.991334410298494
18.700781820450974 12.102708742621591 1.167405839955105
14.961403877338842 9.686376138905581 0.311106597151016
10.998422753791800 7.090716928448102 -0.228417095451167
11.502811477768308 7.421583308310315 -0.717421288178274
9.460280797512693 6.108425935719875 -0.985208516019528
8.077250285562092 5.217412165604238 -1.180670198909069
6.544518059527179 4.230598781207146 -1.234267929167422
5.217146012058327 3.375123118345384 -1.207820940733529
4.507224505815329 2.916970314676073 -1.239480309434696
3.831536850451847 2.481579128167710 -1.223178807154513
25.234717450522862 16.144481397878096 8.027013864809579
11.847294619842669 7.582489179885987 3.247393420508035
24.943624930621056 15.976660754087712 5.757852244482616
24.443441309126030 15.668323252406003 4.598547534322627
19.101633877919873 12.248912005341959 2.786176928928482
18.693022084591885 11.996100204632086 1.943224440301786
19.238669601233440 12.355748593273249 1.198284054138442
15.292907170807862 9.825411983885791 0.317284749029814
11.018053588383788 7.049049055027180 -0.228312381012543
10.749866727379468 6.882759931888006 -0.668958192697308
9.411088203046344 6.030220145370565 -0.977887433628725
8.078700994704512 5.178472909921457 -1.178232812040966
6.532642962669851 4.190662810703219 -1.229262026286134
5.247068702600951 3.368558238681785 -1.212018738631813
4.563290830473091 2.930705471219266 -1.252077568477953
3.838550707803222 2.467144934795214 -1.222661169064308
26.960721292930241 17.109794008202943 8.556039992999130
11.802954790469487 7.496163466310850 3.228047629834463
25.319022783943847 16.092746326772936 5.831504516697962
24.327975896868605 15.474763275085413 4.566634903454419
19.219638750894322 12.230117300500041 2.797145169834945
18.862504279482319 12.012112769067073 1.956472113199430
19.450110393260957 12.395859878069666 1.208751245387031
15.023603939144950 9.578465561281606 0.311001882712392
12.335762340038578 7.831533263616068 -0.255049467674461
10.709766872138047 6.804493387920222 -0.664980660022844
9.423673775312187 5.991987362648897 -0.977015876201248
8.090028203967170 5.145979750878924 -1.177257857293725
6.550564079007057 4.169955675355036 -1.229887764146295
5.272041533757890 3.358660874899076 -1.215071682557837
4.626080876044798 2.948273771440270 -1.266474435955960
3.853654318790316 2.457886206032286 -1.224731721425128
25.688430179144504 16.183129988342799 8.135200225662432
11.467995465161291 7.227373963886546 3.129519068031850
25.268766753405796 15.937239203342070 5.807080965289765
24.348435746464006 15.368660889327064 4.560377524852811
19.260534256610388 12.161893871201933 2.796901431148135
19.348968457678598 12.227183978351597 2.002490345370194
13.736939240262430 8.684132499488946 0.851715351897668
13.776008527023684 8.715563077378926 0.284544034553470
12.415474558608288 7.821468156977589 -0.256131516873573
10.753727852831515 6.779849990685512 -0.666236722972675
9.377131536473296 5.916529381084571 -0.970043416781435
8.081083132074738 5.100755858345188 -1.173358038304760
6.573430426751544 4.152339356121701 -1.231452108796697
5.345133496466929 3.379053128132542 -1.229191548215702
4.636344088389755 2.932107773790622 -1.266474435955960
3.865475224453107 2.446485756492424 -1.225766997605538
28.070685589981505 17.540511112262237 8.869211037573180
11.494806106148408 7.188332409398628 3.129968970140538
25.262668479851047 15.810401101024981 5.792961099631900
19.522341488386914 12.222614344911724 3.648051724738184
18.623274254902508 11.668774149664348 2.698431001676775
18.797361927970631 11.786991659463382 1.941132702475843
19.003667235252209 11.920977983866752 1.175674921041490
13.797879517614312 8.662106602836500 0.284369510489098
12.591918392875943 7.871360042531146 -0.259203140406535
10.875535036685040 6.803708990731689 -0.672307693896856
9.345376628603887 5.850985370137319 -0.964639760731081
8.053415376578975 5.044066611946774 -1.166777093760882
6.566125982730552 4.115729838127166 -1.227384812705651
5.348580449611113 3.355158191071535 -1.227283458261936
4.659755926095320 2.924192816080726 -1.270073652825462
3.870719551339996 2.430922945181386 -1.224731721425128
10.737602806093044 6.665381885302970 3.386388386121381
11.518987659424024 7.153213053328060 3.130418872249225
33.707931314658119 20.948703553815069 7.714407683073707
19.637358678178654 12.213670803412281 3.662756564451966
19.987991362575311 12.436589238225000 2.890497086883288
43.500194963198268 27.087021547674844 4.483291406939536
28.753099387940676 17.911156477993170 1.775340307673141
14.585256283751685 9.092656103539865 0.300006866656904
11.522445226592774 7.152573910085985 -0.236724440915314
10.776401702904453 6.694678652338161 -0.664875988110358
9.319719029501869 5.794245980997169 -0.960107662108202
8.040565906238845 5.000918232504882 -1.162633536085107
6.625980594071508 4.124309682001164 -1.236145142747904
5.329099646090492 3.319653869661704 -1.220414334428381
4.657342338282967 2.902324769155995 -1.266924338064648
3.907842932722812 2.437152060859264 -1.234049207048819
nan nan nan
13.151536519143102 8.103541174494602 3.566374015567636
35.635747639653772 21.974732915550241 8.138003652809635
19.340705333459191 11.931078014881058 3.599244171645632
25.345254845070059 15.647438157580948 3.657298995588476
28.736424412100586 17.754906766966542 2.955276925087593
20.082977714387400 12.413186247558542 1.237326677495678
14.599900427736149 9.031168954901954 0.299657818528158
12.664277655796759 7.800259218446387 -0.259621998161029
10.903417369615855 6.720950406579965 -0.671260974771998
9.243233329723390 5.702053573811110 -0.950171907434969
8.034323146322244 4.958225670818417 -1.159221194469763
6.420168665997894 3.965176984310995 -1.195159312907364
5.345664929117499 3.304128268520635 -1.221559188400640
4.647555287960237 2.873751420357626 -1.261525512760395
3.894970566532012 2.410280921337097 -1.227319911876153
27.010785355310741 16.506872309561818 8.482017746099809
11.197876791588973 6.845948122647027 3.030090702011862
34.466285713681089 21.087883310917196 7.854079867689337
24.797984370510953 15.184320191589423 4.605430650784397
10.505209161591699 6.435078692034044 1.512642290344691
31.420878604540807 19.262283327440255 3.224413858692362
20.104051942136746 12.329433875751072 1.235965942633361
14.701212063848390 9.023037920706486 0.301088915856015
12.321162288447766 7.529727474614408 -0.252047653767248
10.892734370614487 6.662007860945411 -0.669167536522280
9.298766955555152 5.691596679861937 -0.953832448630371
8.002486625955864 4.900088549209866 -1.152152772552264
6.674823429015152 4.090337057995369 -1.239899569908870
5.350471556101304 3.281342758410451 -1.220032716437627
4.629320545327477 2.840186492789926 -1.253877176912704
3.903360287547577 2.396670252560583 -1.227319911876153
34.447675018917415 20.878691846836109 10.793271818865319
11.333339280561175 6.874532983403827 3.060234143293940
45.612658800237099 27.689334286034825 10.371995370678222
24.927761389809277 15.138444974378210 4.619196883707938
25.029786133865855 15.212365685284372 3.596364323885902
28.772861815863976 17.501053178014185 2.946387039327332
34.564470010639276 21.032056195472755 2.120443603139112
nan nan nan
11.085445976918223 6.721520458817096 -0.226287901865818
10.917630236004479 6.624980659662159 -0.669272208434766
9.281112642430818 5.636351008072604 -0.949997595949474
7.997487359167164 4.858725688687878 -1.148984169623730
6.741384924037393 4.098826280523622 -1.249598506741364
5.365247310737729 3.264687203573817 -1.220795952419134
4.524349878674172 2.754093562594675 -1.222833931413250
3.934799804693978 2.397101416683014 -1.234566845139024
11.819547936158758 7.110326570164244 3.695935964063997
27.688555701189454 16.663282892696220 7.460726668368627
34.283037377903923 20.648220460199862 7.779282741501732
24.923687425997361 15.023066065501645 4.609185077945362
25.166032168192558 15.175131161012450 3.608307519539606
nan nan nan
28.518204238893258 17.216860737102316 1.745822828352120
15.636737409264294 9.447578320679156 0.318890370422044
11.110554459490347 6.683814897936375 -0.226322806678693
10.735358800033170 6.463211688985680 -0.656711578936459
9.217109387425479 5.553535676754554 -0.941456333160203
7.982096340134698 4.811308961207768 -1.144353134574335
6.715056626207369 4.050781134815987 -1.242089652419433
5.386694804869047 3.252027144199388 -1.223085660363652
4.617341632968107 2.788656994763531 -1.245329036847637
3.910077086989143 2.363365619612618 -1.224214083334923
11.336204621514339 6.763098603961665 3.537021070371049
10.890810570301792 6.502535462844620 2.928412825448435
47.850811698817758 28.592767118730013 10.835279611452474
24.783596089985597 14.815057053398238 4.573205150986110
10.520914431012059 6.294143685666700 1.505330129740382
10.176182116377996 6.092731857421815 1.037676273153618
28.422207355306469 17.023817885639001 1.736297684315905
18.593952953998425 11.145889316527629 0.378403076373181
12.840636689988267 7.663671111149235 -0.261018190676012
10.750995526251726 6.421602201581954 -0.656292891286516
9.236438690810466 5.521328126787250 -0.941456333160203
7.961361049672694 4.761002625932823 -1.138990883464508
6.780005622856879 4.057749656579867 -1.251475720321847
5.391276689881358 3.229169057571294 -1.221559188400640
4.645435566223322 2.783540447469304 -1.250277960043202
3.928243677309018 2.355663695350852 -1.227319911876153
11.390153439131623 6.744170206298127 3.546856194084945
27.549357889560472 16.318615453305810 7.392341547848092
11.857121466096105 7.029052010650733 2.679339913077442
24.909038103716195 14.778146701507039 4.587284252839730
24.993109163870933 14.833922898884181 3.568578113589528
nan nan nan
9.852098406385203 5.854400370773551 0.600607433844023
13.734367123506777 8.167844569916410 0.278924359680665
11.361707103098896 6.727326979999598 -0.230476479410766
10.756163232939148 6.373853227070382 -0.655246172161657
9.192248813132087 5.451450084711151 -0.935006808196877
7.943786751055637 4.712925705271374 -1.134116109728303
6.802621166956709 4.039100872031655 -1.253040064972249
5.410954541652708 3.215344890826488 -1.223467278354405
4.638372559432708 2.757349966027986 -1.245778938956325
3.939763037308813 2.343912699276526 -1.228355188056564
11.408628384590108 6.701434699858136 3.545303279814329
27.510385457448091 16.166074644515874 7.366697127652890
9.877910953626850 5.809249192247318 2.227504212025784
24.940043003862971 14.679084075737794 4.583529825678765
10.783554520915665 6.349464190378569 1.536528681652100
9.959273909771932 5.868802243303081 1.011355238843825
24.885929719603084 14.670636219215535 1.513974542195879
18.685090482181231 11.023937471570695 0.378682314876178
11.009237508421034 6.466832275610416 -0.222867230204110
10.726693184276533 6.305902875550329 -0.652106014787080
9.121925960794256 5.366793553604691 -0.925942610951120
7.943081885591524 4.675098868153840 -1.131678722860199
6.852421701414591 4.036384853630299 -1.259610312503939
5.425527723040004 3.198431580367662 -1.224230514335912
4.619433503687081 2.724313255603906 -1.238130603108633
3.964557651563988 2.339965490302780 -1.233531568958614
11.413590693544799 6.650871353509268 3.539609260822074
nan nan nan
9.886258544648999 5.767808129378508 2.224832886090513
26.696317951870942 15.581323126417242 4.895773017899065
10.797082116789674 6.306777703659654 1.535309988218048
10.031300517433619 5.864167606209065 1.016584583408685
9.966864538606735 5.828833432409187 0.605108326080916
15.984575735375454 9.355607900368831 0.323288376844240
11.465411507912210 6.681068123224048 -0.231628338235627
10.693429836873008 6.236223962459325 -0.648756513587532
9.121675783844168 5.323871932403719 -0.924025184610672
7.904496014609103 4.615313917556745 -1.123879084882270
6.822125749248221 3.986528412402114 -1.251475720321847
5.451911751629396 3.188393437610042 -1.227665076252689
4.647417192244080 2.718996640769804 -1.243079526304198
3.896014859466815 2.281210470749449 -1.209720216809182
nan nan nan
9.740609861860808 5.632814354729869 2.597734775562953
9.965803696104382 5.767682756725057 2.238189515766871
25.017092595901698 14.484406123015599 4.578523922797477
nan nan nan
nan nan nan
nan nan nan
12.015445646498259 6.976321855058738 0.242518639852492
11.358818192742753 6.565949090993384 -0.229010477270034
10.684014683469929 6.180856438773306 -0.646872419162786
9.100546438932206 5.269037961047942 -0.920016020444280
7.898227522952403 4.574759667055324 -1.120710481953736
5.943901797900499 3.445559356887552 -1.088158138819846
5.468102612322022 3.172298847286875 -1.228809930224949
4.675419824798813 2.713517726331901 -1.248028449499763
3.987478938622950 2.316112068063482 -1.235602121319434
27.340489015131791 15.677062191206801 8.444747803605047
nan nan nan
10.076114898207939 5.784666371504023 2.258415269276784
25.100046492495192 14.415684210826589 4.584468432469006
31.359119872700312 18.025011496808979 4.441162612370384
10.220519279007934 5.879433129226030 1.031575371161282
11.914953127139976 6.856937364113301 0.720456773640365
12.464268460604670 7.178855858483969 0.251070319006761
14.355023054677940 8.231183760460208 -0.288837326537042
10.627571957527392 6.098790209391733 -0.642162183100921
9.072235046688002 5.210447540746638 -0.915309610335906
7.888330064924348 4.532327685699861 -1.117054401651582
6.680258176726344 3.841318823235925 -1.220501696243881
5.451917134500127 3.137524244258345 -1.222704042372899
4.674730199340710 2.691347088979068 -1.245329036847637
4.015625884200405 2.313752644063519 -1.241813778401895
9.475925117040745 5.389639387979931 2.921031743027049
11.332862863412331 6.448431381079974 3.010295009229601
9.908583204237800 5.642591658350886 2.216437290293944
26.597127655794846 15.152282235984833 4.848216940526835
26.415666836569091 15.061120583508254 3.733589204560098
10.246171503388020 5.846683385535789 1.032098305617768
9.439348412402445 5.388477096905775 0.569624547748201
16.085141809808011 9.189691857815967 0.323358186469989
11.136696017483180 6.334239112954410 -0.223635136087351
10.570687433563521 6.017193880632264 -0.637451947039056
9.057475423458609 5.160009221215270 -0.911997692111495
7.886856213110548 4.494935370400192 -1.114617014783479
6.558072102678849 3.740658285439387 -1.195785050767525
5.423620808695091 3.096088335033381 -1.213926828585578
4.687480736435186 2.676945651530266 -1.246228841065012
nan nan nan
9.467759793963607 5.341341651534165 2.912749533583768
9.520736823684654 5.373420004354685 2.523950829738165
nan nan nan
26.502780132395969 14.982341437309358 4.821935950400077
9.890539518217407 5.593519458631473 1.395160243302128
23.990464528335753 13.578679732228595 2.411773713313197
9.481494694198823 5.370927166488345 0.571089954523003
14.720095828709740 8.341800957115312 0.295329621731712
12.076587290056375 6.813140606069561 -0.242029972472248
10.457709837175013 5.904646171255663 -0.629392209777642
9.007782599663379 5.090133831484504 -0.905199544177178
7.904226493697467 4.468354622979548 -1.114860753470289
6.572808763143403 3.718716274420563 -1.196097919697605
5.489063677072853 3.108092674311695 -1.226138604289677
4.700187651607253 2.662487968384987 -1.247128645282388
nan nan nan
9.488959223531930 5.307547761499186 2.913267171673974
9.554739463550103 5.348720785661595 2.527999948716355
9.843255527478494 5.514744963036565 2.193158592858006
27.991193616179110 15.688659313168401 5.082242900227020
9.884034675365598 5.544393447485870 1.391504162999974
36.223359023089714 20.335914975777332 3.634394472577346
9.537685987394392 5.356678336502031 0.573288064685207
12.653810957854883 7.112608089893614 0.253374036656482
11.395288862571290 6.376444179182930 -0.227928428070923
10.523564801386199 5.893479461846927 -0.632113679502275
8.973355248144825 5.029435875960790 -0.899970199612318
7.897266605808085 4.428115255863637 -1.111692150541755
6.663269400300785 3.739252395268955 -1.210177021551226
5.518708845505221 3.099488508769411 -1.230336402187961
4.682269844910516 2.630791928287686 -1.239930211543384
nan nan nan
28.683968713780899 15.925971725773991 8.791047685952220
32.587808733549160 18.100911465088760 8.606177437087588
9.804863043860149 5.450594472472162 2.180565199163154
9.747054051179271 5.420685153279913 1.766457979234287
9.891959089732556 5.505793798669914 1.390041730879112
34.442125524694248 19.185991312913366 3.449275674981320
nan nan nan
12.635413346850916 7.047230304220453 0.252536321147492
12.655912946217848 7.026841848718314 -0.252675940398991
10.490675605623455 5.829446083980812 -0.628973522127699
8.948194536621399 4.976410823068691 -0.895786723960431
7.859866733727879 4.372949092530531 -1.104379989937446
6.563451568812121 3.654670845729079 -1.189840541095996
5.530671713023518 3.082126466835663 -1.230718020178714
4.694372306482443 2.617148356535767 -1.240830015760759
nan nan nan
9.539181461001311 5.252885056010745 2.917925914485819
32.601294821530608 17.959779731957756 8.593130275935644
9.786005800083421 5.395481970588345 2.172169603366586
nan nan nan
24.714361535476201 13.643060541150241 3.466207865129205
34.254273515819875 18.924978627956534 3.423826198099003
9.525810708133106 5.267210224318843 0.570461923048088
14.177028305041583 7.842289798280410 0.282798793909742
11.592574885663002 6.383615158862138 -0.231000051603885
10.503963445440062 5.788935200614492 -0.628554834477755
8.979467754599758 4.952843699334673 -0.897181215844393
7.838584338204635 4.325346203127074 -1.099261477514430
6.273557790090845 3.464618709288025 -1.135088478331915
5.529368809707890 3.056154100006625 -1.228046694243442
nan nan nan
nan nan nan
11.431454913221319 6.237809039225310 3.489398366072185
9.892427204005221 5.402488989440963 2.602233796649830
9.760924810164038 5.335096666892322 2.162247535607006
9.179833975148624 5.021648255179735 1.657266722636206
9.056930133073056 4.956470067834282 1.267684910100344
32.292870402610852 17.687156370337807 3.221276251953446
9.589753902691704 5.254588553398491 0.573078720860235
nan nan nan
12.470675107738229 6.807705854712105 -0.247998695473799
10.484797737876054 5.728372530984171 -0.626147380490580
8.974834994020336 4.907472636176112 -0.894915166532954
7.823036996740289 4.279439060797541 -1.094874181151845
6.362452653606427 3.483341080491929 -1.148854711255455
5.509541861769018 3.018886187808776 -1.221177570409887
nan nan nan
nan nan nan
nan nan nan
9.998616649783097 5.415256350044432 2.625178804192905
9.755324374428977 5.287894067791611 2.156904883736463
9.147819421407403 4.960660635628484 1.648193523663872
9.061963375765529 4.918196987509053 1.265978739292672
23.724819017982703 12.886887679290247 2.362094939947032
24.055541659943948 13.077406694042446 1.434947248269034
15.824353267338680 8.606232516482960 0.314422554374100
11.768089174330566 6.370947509083019 -0.233583007756603
10.374781436164675 5.621329517116053 -0.618401658966624
8.949875950129695 4.853320258560141 -0.890731690881067
7.761153367001714 4.210455306442427 -1.084149678932192
6.376309015671279 3.462053322714671 -1.149167580185536
5.478645828785213 2.977138636331829 -1.212018738631813
4.735666018021496 2.574468343315116 -1.244429232630261
nan nan nan
11.536625747069403 6.193663893448411 3.508550975409771
10.009652802655726 5.378380459352953 2.623379195758154
32.921837706239558 17.704354011018339 7.266006543938826
nan nan nan
9.113179455309009 4.906941569221706 1.270853513028878
23.725328856353897 12.785458153089653 2.357911464295144
24.293900307391091 13.102803331822303 1.446565830554967
14.145742789999417 7.632628660166002 0.280564885885770
11.789151292657426 6.331888089450189 -0.233583007756603
10.324756514683781 5.550014281104641 -0.614319454379675
8.923810930171568 4.800959773277050 -0.886548215229179
7.717389295994151 4.153648718933170 -1.076106302267452
6.406884759606564 3.451194554231926 -1.152609138416421
5.478119572241978 2.953364458466269 -1.209729030687294
4.747607576695926 2.560600298305767 -1.245329036847637
nan nan nan
10.101893032257138 5.378058406737136 3.066488046374666
nan nan nan
10.035349251595825 5.351626793768852 2.210713020432648
9.896766065749739 5.282161379637011 1.776782653926942
nan nan nan
nan nan nan
15.086256735293368 8.068850909856362 0.896619602354114
16.545516059815640 8.853046675115078 0.327546764014937
11.669984251635135 6.215495093317135 -0.230790622726637
10.315866902585666 5.498908302114887 -0.612644703779900
8.924694231133536 4.761340181225891 -0.884979411859721
7.710826021826001 4.115468340566849 -1.073181438025729
6.317835159206539 3.374826986909846 -1.134462740471754
5.424335228332046 2.899976216311707 -1.195609165029430
4.814942239015241 2.575261163048771 -1.260625708543019
nan nan nan
12.084159034785444 6.382039747584772 3.661771850110463
10.360547235192106 5.474056800557173 2.705261379539321
9.956778676078834 5.265169911260037 2.189342412950475
nan nan nan
27.839880921241306 14.740458176910028 3.867889220992570
