# This PCD file was generated using the MATLABÂ® pcwrite function
# from Computer Vision ToolboxÂ®.
# .PCD v.7 - Point Cloud Data file format
VERSION .7
FIELDS x y z
SIZE 8 8 8
TYPE F F F
COUNT 1 1 1
WIDTH 948
HEIGHT 1
VIEWPOINT 0 0 0 1 0 0 0
POINTS 948
DATA ascii
8.638275725075051 39.953607596146391 9.437146631833825
7.785161079397016 36.068746378463011 7.172510136204320
6.702938917888836 31.081100355617973 5.035938298575112
8.346090068701031 38.765947216238040 4.868924007722452
6.612344161480633 30.765227504770451 2.753075601913026
6.725423774059132 31.344606879928456 1.680088867310983
10.062673614750077 46.938178762298755 0.837924937866856
9.464245758237039 43.736911998562448 -0.781099902507061
9.231661928488970 42.734235786278880 -2.291268164316081
4.298920802888128 19.933821646326933 -1.784078054044563
2.652290990170975 12.308928704718170 -1.546034490437701
1.924659181798818 8.947252635380053 -1.449521753062779
1.488883064729536 6.933210304682238 -1.378404182600160
1.232197531795923 5.742797558948553 -1.356004955584818
1.037046903986014 4.841514203250668 -1.326706425195521
9.078021868398581 41.254877905080370 11.318674480423438
9.027091370817010 41.057566131199955 9.705288288611712
7.894601551860865 35.966564828621337 7.157627034564949
6.827048766384327 31.128905522498968 5.047514448988089
6.635295206311657 30.305128007233343 3.809148197471290
6.760538596058650 30.928816226940679 2.769809504520576
6.910165585567039 31.666326783481420 1.698615795820985
10.239237006066434 46.961381318896485 0.838972082253093
10.333245175192070 46.959213609055901 -0.839286225568964
nan nan nan
4.365062095505159 19.903125086769329 -1.782683562160600
2.690142021136514 12.276326510306610 -1.543109626195977
1.950391082754178 8.915393207096002 -1.445454456971733
1.518521145310350 6.952905450894520 -1.383365216479950
1.255559914599769 5.753692883278966 -1.359604172454320
1.058463974665875 4.858628105819865 -1.332400444187777
nan nan nan
9.225617609514257 41.273040625612261 9.763775562741117
8.047039111870617 36.059504105940547 7.181668967982393
6.583576130435453 29.550115466626600 4.795029222413157
6.709982673038569 30.142270210778154 3.791599012020948
6.695991208331232 30.128999748962659 2.700259221807945
7.040036992334203 31.703179545186060 1.701965297020533
nan nan nan
nan nan nan
8.050462027424054 36.045246522410288 -1.935593005689035
4.441448103928880 19.918881056119645 -1.785472545928525
2.745496783017223 12.323051384847391 -1.550178048113476
1.996082195766957 8.974091372030205 -1.456092000594469
1.546612418679246 6.964811584029098 -1.386799778396728
1.275636401504885 5.749275107820157 -1.359604172454320
1.071657102853860 4.837928588593492 -1.327741701375931
nan nan nan
9.072162032922622 39.931270325087446 9.453793009855271
9.636845264877849 42.485372085979293 8.468103214811059
6.683979101937561 29.491109680199205 4.789397581671708
6.850644438846061 30.275492070453371 3.811341845652582
6.773899963348108 29.984951087369218 2.689451909707236
7.124037181614423 31.586140335976769 1.696941045221211
12.975984529015623 57.578984304162567 1.030250456805720
nan nan nan
8.264664334964916 36.406466184039836 -1.956527388186212
4.526805082491991 19.973208047576811 -1.791747759406357
2.795510616370238 12.344369825015111 -1.554077867102441
2.037850442731666 9.013310940522709 -1.463600854916400
1.573508420798803 6.970860897235826 -1.389089486341246
1.294411080445904 5.739084313726495 -1.358254466128257
1.088538096226583 4.834158332894233 -1.327741701375931
nan nan nan
9.537439216230256 41.344107996935406 9.795718612457945
11.946041067074548 51.867877655589844 10.346045347307012
6.765085254758117 29.419912333676169 4.781262989489616
6.989677409931657 30.420925303875151 3.832547111405078
6.864386818009005 29.923484188486817 2.685965679997329
7.231416757085334 31.574023609847231 1.697569076696126
11.535047376969301 50.405086130674803 0.902568651310554
9.751492486356986 42.238354442918492 -0.756666533494864
nan nan nan
4.570225168301114 19.859063314099313 -1.782857873646095
2.828868022433940 12.302143445274599 -1.549934309426666
2.069496498969031 9.014204784127278 -1.464852330636722
1.597493238401725 6.969431882407116 -1.389852722322752
1.310825113985435 5.723362998931694 -1.355555053476130
1.104562757793611 4.830522030642519 -1.327741701375931
nan nan nan
9.659021046390915 41.213800413119593 9.772773604914871
12.151623017351271 51.931001156378848 10.367034336798433
6.852009680077989 29.328793314121128 4.770312576936800
7.063783257689531 30.259090090892823 3.815241664641547
6.961561370085217 29.868294596567594 2.683176696229404
8.956753772696903 38.489356263136358 2.071038460445773
11.716358410403629 50.387887028108622 0.902987509065049
nan nan nan
7.693477995465351 32.852889658755608 -1.768327289536586
4.664466917180648 19.949692861829455 -1.792445005348338
2.872244893261689 12.294126943068354 -1.550178048113476
2.107680273086228 9.035781996477189 -1.469545364587929
1.628045673756771 6.990582318519073 -1.395195374193296
1.333445500131655 5.730140653022515 -1.358254466128257
1.125352495918608 4.843572526168878 -1.332400444187777
nan nan nan
nan nan nan
12.306895899057812 51.739047101245021 10.337649751510446
7.015145684869291 29.537956432974237 4.808482586406616
7.138430824965344 30.080412186400455 3.795986308383533
7.065015653134795 29.817375335937978 2.680910646917965
7.307271199200628 30.887851833947249 1.663446033225727
nan nan nan
13.741348606012270 57.635521231365701 -1.034229605473421
7.813838179867892 32.824470985774006 -1.768327289536586
4.741240603962153 19.947969856441787 -1.793839497232300
2.929211840011796 12.333732697788280 -1.556515253970544
2.141239689646467 9.029918347628733 -1.469858233518009
1.645967181705942 6.952090800121099 -1.388707868350493
1.354887197168110 5.727111237149476 -1.358704368236945
1.140877048757123 4.830014795984669 -1.329812253736752
nan nan nan
nan nan nan
7.770239478950813 32.167446063438987 6.432552852134079
7.127472730199714 29.551695307538822 4.814739965008226
7.186180899061825 29.817940966894856 3.766006449905868
7.144815997655137 29.691803193962901 2.671846449672209
7.544290784401217 31.400088644603620 1.692440152984318
7.752006576384192 32.289431210352475 0.579629322595060
7.259202914731531 29.983050746209514 -0.538476548215945
7.764114047287343 32.117526670988667 -1.731692120166525
4.842631810518093 20.062998656718470 -1.805692678245982
2.978762799371012 12.350449306871916 -1.559927595585888
2.171359491586661 9.016627589543138 -1.468919626727768
1.669306521556597 6.942485249142899 -1.387944632368987
1.377601822057563 5.733715807854853 -1.361403780889071
1.153674110581864 4.809095987715003 -1.325153510924906
nan nan nan
nan nan nan
7.877335154230509 32.143408981796007 6.432934470124831
7.177070019611995 29.330264324135307 4.782514465209938
7.339242810245209 30.015699671608008 3.794036398889051
7.227644148105409 29.604074076747935 2.666094170650863
7.688407289110453 31.515208602535598 1.700081202595787
nan nan nan
nan nan nan
8.053259550376138 32.836476152906933 -1.771886134561106
4.933779317232390 20.147460463584618 -1.814756875491738
3.001772506368231 12.267231727169646 -1.550665525487096
2.197965821745764 8.995945013758023 -1.466729544217205
1.705813340077767 6.992223646330623 -1.399011554100827
1.397069470338612 5.731009286430552 -1.361853682997759
1.173727233081487 4.822137259777501 -1.329812253736752
nan nan nan
nan nan nan
7.980957377720135 32.081422778614559 6.426065346291275
7.254976589286945 29.184906013627106 4.763116591544949
7.262727063512857 29.259705894223156 3.701659436587950
7.357778579426334 29.686961702235941 2.675855613838601
7.759958175501396 31.333083969176208 1.691707449596916
nan nan nan
7.599060722103828 30.478167856995164 -0.548284800633699
7.847448387119654 31.521266259150032 -1.702383984670477
5.023783787974433 20.209390875405681 -1.821903646397046
3.046967629571074 12.266311574202309 -1.551884218921148
2.231731863303914 8.997804284725696 -1.468293888867607
1.732570169869355 6.995755052700233 -1.400919644054592
1.413788920403282 5.712855969502362 -1.358704368236945
1.192869634165286 4.827388019645260 -1.332400444187777
nan nan nan
nan nan nan
8.074331984817674 32.003383279179772 6.415761660540943
7.280033225725027 28.897627241993952 4.719940679193846
7.360685024476942 29.239311007578230 3.702146913961570
7.436269394480495 29.583175803222385 2.668708842933293
8.881708073754391 35.359561980643157 1.910681090517393
nan nan nan
12.554065346369640 49.649619979961408 -0.893912257717661
7.951933524925127 31.495069867900106 -1.702383984670477
5.087850548177861 20.181028659450988 -1.820857777484074
3.081808124089544 12.233040652423533 -1.548959354679424
2.261557386739997 8.990354122190949 -1.468293888867607
1.743802447472183 6.942368541203983 -1.391379194285765
1.431302422588587 5.702465931233683 -1.357354661910881
1.207462330039124 4.817784093714650 -1.330847529917162
nan nan nan
13.734671632673274 53.570638961732115 12.767771942449091
8.240042884403298 32.186116247326794 6.458121257514536
7.356524245699293 28.755925812762282 4.701168543389018
7.485305279123898 29.301912405267625 3.713358893554843
7.789655870760366 30.537768087964690 2.757259077564914
9.008041794528745 35.339955863982233 1.911309121992309
nan nan nan
12.662692803428104 49.353691085164911 -0.889374632043968
8.291821301959539 32.364854448279452 -1.750951752063929
5.184929840969838 20.267378026854196 -1.830270597700822
3.131865508859906 12.251057250109913 -1.552615434981579
2.294880137826563 8.990061043976691 -1.469545364587929
1.758811696287697 6.900093176478724 -1.384128452461456
1.450718016077789 5.695546568210418 -1.356904759802194
1.217605585670112 4.787328492832025 -1.323600596654291
nan nan nan
nan nan nan
8.164354027782309 31.410852492959545 6.308527005139324
7.426087999288180 28.611526076442338 4.681770669724029
7.604612735786552 29.320396933951439 3.719208622038291
7.655262880082589 29.558137304537397 2.671323515215723
12.627376484182333 48.791310381772739 2.641291039668889
nan nan nan
12.840473699528655 49.295337755341436 -0.889165203166720
7.814099810209666 30.041777353700670 -1.626810863855666
5.226120974229226 20.120963536960843 -1.818766039658131
3.182232590302033 12.260631808761039 -1.555296560536492
2.319885406659346 8.950994350633509 -1.464539461706641
1.797862946716208 6.946818222059152 -1.394813756202543
1.475486898105751 5.705284510257028 -1.360503976671696
1.236592975717504 4.788445048749074 -1.325153510924906
nan nan nan
nan nan nan
8.246921026259074 31.279649554743216 6.287919633638658
7.536943822859606 28.607038231482811 4.685525096884995
7.667012899168072 29.142011924968941 3.699953265780277
7.752318307601179 29.508111403073634 2.669231777389779
10.954602561115800 41.726789401223272 2.260913309695173
7.748503212737551 29.556553258057448 0.533345540723384
8.011602143246829 30.322697056616043 -0.547447085124709
8.378502163868566 31.756237658672994 -1.721224928917936
5.321196926880946 20.197003918595826 -1.827307302447401
3.210859360528951 12.195698135494197 -1.548471877305804
2.354631949572584 8.956215094903225 -1.466729544217205
1.812130457938199 6.902522073628536 -1.387181396387481
1.500832659572532 5.720833829626983 -1.365452899867261
1.252810664051975 4.782230572069597 -1.324635872834701
nan nan nan
nan nan nan
8.354028597699381 31.243085366295990 6.286393161675645
7.726552304004824 28.936870912714685 4.743718717879961
7.696531018117815 28.844635077435701 3.665586110940026
7.886052451240841 29.596384099074047 2.679690466519498
11.165968399135638 41.935338245378112 2.274311314493367
7.851627630663740 29.529325865715059 0.533345540723384
13.084415435064754 48.831703191000102 -0.882428574281929
8.412895300394846 31.441248861007029 -1.705733485870025
5.400923052172940 20.212953906318116 -1.830444909186317
3.233438587778132 12.109617761887071 -1.538966068520202
2.380791293431807 8.928854425658832 -1.463600854916400
1.822574714795432 6.844931349468668 -1.376877710637147
1.525803802616509 5.734392251162722 -1.369951920954138
1.271480494262080 4.785296585798626 -1.326706425195521
nan nan nan
nan nan nan
8.485641509516951 31.297107073668496 6.303184353268781
7.853222997451259 28.984622607217108 4.756233475083179
7.787838353724267 28.783102004759634 3.661198814577441
8.003346908734407 29.620608563417498 2.684396876627872
8.364466261680249 30.978591823169698 1.681658945998271
8.275341479080284 30.691075776455303 0.554846905454117
13.251120084736337 48.772224385048801 -0.882184240591807
8.206710399740260 30.247438170728046 -1.642511650728549
5.460504673093325 20.153593912451200 -1.826784367990915
3.270501364888652 12.079096176151671 -1.536528681652100
2.409366341903170 8.910955003429956 -1.462036510265998
1.848503950060837 6.846109191066110 -1.378404182600160
1.544288304554790 5.723386900300419 -1.368602214628075
1.292197390065226 4.795751740574361 -1.330847529917162
nan nan nan
nan nan nan
12.219686365203883 44.454193352458176 8.961535276854804
7.949296290024553 28.958421013996951 4.756233475083179
7.902441705494238 28.807429991754649 3.667779759121319
8.120379993976016 29.642452559116816 2.688928975250750
9.227728951595870 33.707780440126434 1.831549124678062
8.342345900578604 30.515405068705995 0.552194139675650
10.927562996991094 39.672267257790274 -0.718271239332840
8.608882490161266 31.297017782282982 -1.701127921720646
5.509710574740489 20.057561516794998 -1.819811908571102
3.321578566444825 12.100149126266945 -1.540672239327874
2.460824304451164 8.976789007595935 -1.474238398539136
1.869279786571994 6.828253512586992 -1.376114474655641
1.566828344813273 5.727359818056134 -1.370851725171513
1.311984493838634 4.802393270587547 -1.333953358458392
nan nan nan
nan nan nan
8.721317910509606 31.299513819782941 6.315777746963633
8.057745417103591 28.957139371194785 4.760613640104306
7.996568319380460 28.756719522799500 3.664854894879595
8.213139729712715 29.575531728789539 2.685442745540843
8.687348073061887 31.304347675925637 1.702593328495449
8.434394124464813 30.434068300273548 0.551251709728037
11.213324095213915 40.161613945637029 -0.727835158060472
8.469173025630962 30.374099644240570 -1.652560154327194
5.587173307396246 20.065077998849198 -1.822252269368037
3.380292753603916 12.147766318575659 -1.548228138618994
2.495317511950693 8.979563976842581 -1.476115612119618
1.896253373614599 6.833037468977149 -1.378404182600160
1.575874674713082 5.682420501421809 -1.361403780889071
1.328224366597416 4.795922561053616 -1.333435720368187
nan nan nan
15.608678972476035 55.196670848815344 13.242868569223333
8.844926756637946 31.319892726131453 6.326081432713967
8.169726334656520 28.948324056567337 4.764055198335191
8.066743235769696 28.621634330649467 3.651205528418219
9.186502822701145 32.638286382325148 2.966432860159293
8.671644120647018 30.829700197985584 1.678414116711209
8.521650076573161 30.337059892582428 0.550030041277427
9.522912434855787 33.653259078527860 -0.610485177176177
nan nan nan
5.677743151746265 20.118317546265409 -1.828876105816859
3.426986452178050 12.151177386399032 -1.550178048113476
2.543248374409245 9.029742345836175 -1.485814548952113
1.914777699222364 6.807477520007995 -1.374588002692629
1.603610372332761 5.705025593588046 -1.368152312519387
1.346001389879184 4.794976894398334 -1.334470996548597
nan nan nan
14.648169810549781 51.117909430043909 12.276478839762088
8.953119382122248 31.285052389912220 6.325318196732460
8.296253675878811 29.008894005877124 4.778760038048973
9.498445314183412 33.256415001614499 4.246659140295769
9.328793854294242 32.705651231636651 2.975497057405050
8.750736882254788 30.699363632779043 1.672971177261942
8.598476796932346 30.205194840717638 0.548180086195075
9.608357150953887 33.508323509818666 -0.608460698029452
nan nan nan
5.715612049707657 19.985356114501904 -1.818591728172635
3.457380094544999 12.097150203050798 -1.544815797003649
2.576379064903336 9.026508293233768 -1.486753155742354
1.933146753107223 6.781871735797532 -1.370771822785098
1.627251985515069 5.712512478993454 -1.371301627280201
1.357444782528535 4.771667998425620 -1.329294615646547
nan nan nan
15.764345310276168 54.296602343312237 13.053009879357111
9.089060470316481 31.346003349744866 6.344017478279361
8.369973665389983 28.884891642102929 4.763116591544949
8.485436875099225 29.321640464234392 3.747969787081906
9.951833031679627 34.433817369569454 3.135863624060741
8.917144187032278 30.873945445120203 1.684171071897932
8.717715455720008 30.223030595202843 0.549052706516939
nan nan nan
8.526315210274078 29.386052819764924 -1.603573699283799
5.762603694172325 19.886822818909568 -1.811444957267327
3.489647097164059 12.050686419107718 -1.540428500641064
2.607871762668716 9.017460059427229 -1.486753155742354
1.946457526113069 6.739245459308729 -1.363521080960789
1.646642047314986 5.704925198073030 -1.370851725171513
1.381048819127845 4.791032067196475 -1.336023910819212
nan nan nan
14.763831155734010 50.195538293838588 12.079421716156864
9.201189677044576 31.323503974004787 6.345925568233127
8.486329174177824 28.908570075199535 4.771876921587203
8.597789432809554 29.326130552587262 3.752357083444491
8.838026700703649 30.184577504188432 2.751681110029064
8.985036234580386 30.706532089466080 1.676739366111434
8.814185802033281 30.161705302045309 0.548494229510946
nan nan nan
8.465500076407633 28.800414769984478 -1.573218844662892
5.906626103395987 20.120845080767037 -1.834628384838205
3.551807807480869 12.107005206665370 -1.549203093366235
2.629890627177673 8.976075281279122 -1.481434383930986
1.966110581235077 6.719220276684079 -1.360849755025518
1.672015385411620 5.717846699214078 -1.375350746258391
1.392348636431272 4.767638212652191 -1.330847529917162
nan nan nan
15.490733490468420 52.028961280788145 12.532923041714094
15.208425606516721 51.146042531183937 10.371995370678222
8.835791437795114 29.752840354593513 4.915796629424214
8.632863862099901 29.088122487068514 3.725545827895358
8.864467438207202 29.906771933952001 2.729020616914672
9.102435117517899 30.749012365834783 1.680612226873412
8.905648034878222 30.103547386273075 0.547970657317828
8.714489766006002 29.250820830454646 -0.532752158904516
9.070173882978478 30.483583161743880 -1.666795534425275
5.973884289544737 20.103057219256325 -1.834802696323700
3.575547920127441 12.039974822481483 -1.542134671448736
2.654586619864971 8.950260388454007 -1.478618563560262
2.014588443473747 6.801136604973532 -1.378785800590913
1.688754671134504 5.704796309466691 -1.373551137823640
1.401030866373819 4.738911205317626 -1.324118234744496
nan nan nan
15.367889310757144 50.965193542310558 12.289526000914032
nan nan nan
8.872481084963812 29.480027070617094 4.876062275303997
8.715490486844217 28.995075738801273 3.717502451230619
8.928706850581191 29.742069085961290 2.716818812930001
9.293129685481041 30.975614412598404 1.694847606971493
9.006657014697424 30.058868596372804 0.547726323627706
8.975392485782555 29.746696642450889 -0.542350982445022
8.304053149699921 27.556488623375081 -1.508322258921641
6.050336850805194 20.103068402181528 -1.836720122664148
3.622127607187471 12.042628218297853 -1.544084580943218
2.675014878215063 8.904994246619758 -1.472674053888733
2.024776683935580 6.748932163423440 -1.369626968812839
1.702501520837849 5.678333606759993 -1.368602214628075
1.428647597262406 4.771005051580531 -1.334470996548597
nan nan nan
14.279436729253762 46.764310304093172 11.288493809083834
15.214633054862080 49.889365868256242 10.138445160337332
8.958054663676826 29.392189767604748 4.866676207401582
8.864628495568311 29.122098403680788 3.737732762235873
9.141422289072271 30.069094778811024 2.749589372203120
9.765431997958721 32.162001437196793 1.761523615225003
nan nan nan
8.883425759456156 29.074524673691535 -0.530657870132042
8.554089313898706 28.031651757791007 -1.535955643817915
6.100142857096357 20.015121942969103 -1.830619220671812
3.668190933044063 12.043203985258023 -1.545790751750891
2.707232623993204 8.899382183231573 -1.473299791748895
2.039190960293861 6.711767761866565 -1.363521080960789
1.719481343901463 5.663032773701334 -1.366352704084636
1.443050306568775 4.758594211428410 -1.332400444187777
nan nan nan
14.336100106071152 46.369749655091297 11.205261918976603
15.359724714432376 49.742159981791161 10.119364260799676
9.051278171896053 29.330540555964930 4.861670304520294
9.022359876018632 29.273092675392572 3.761131676169662
9.252775251648188 30.057948374432598 2.751506798543568
9.916376979755828 32.253716312900970 1.768431961449072
9.672049645127956 31.478582279064398 0.574812458418370
9.877850504929274 31.929906028042296 -0.583399042385513
9.337008688689366 30.219005057809323 -1.657584406126517
6.186421630668826 20.047012928851409 -1.835499942265681
3.693826606411181 11.977212214940183 -1.538966068520202
2.725487784364872 8.848345295687647 -1.466416675287124
2.048175079667423 6.657697146415295 -1.353980631191962
1.731793661440364 5.632781164190162 -1.360503976671696
1.463621636510031 4.766455267267180 -1.336023910819212
nan nan nan
14.435683461166835 46.148986446889253 11.163421022868643
9.413580044369334 30.130890145563392 6.136035673318928
9.172798706077332 29.396245652665499 4.877313751024318
9.169025503425503 29.402199398202551 3.781605725861726
9.301446282576709 29.863505841997600 2.736516010790971
10.057395934492543 32.310441595195563 1.773456213248395
nan nan nan
9.013624794780917 28.797734994523520 -0.526713626277216
9.332283283648211 29.852370695830704 -1.639162149529001
6.240395803187740 19.986449125050786 -1.831839401070279
3.741802487580709 11.991426895239890 -1.542378410135546
2.770684396056032 8.890178162253825 -1.474864136399297
2.064406583844615 6.632123145046903 -1.350164451284431
1.757988253967045 5.651197535651581 -1.366352704084636
1.473114564668932 4.741282090138904 -1.330329891826957
nan nan nan
14.633158134043308 46.213500761500946 11.191314953607284
9.496203290714309 30.026715874802626 6.121534189670310
9.266191984755542 29.317223374148270 4.869804896702386
9.333751788768298 29.566887198440497 3.806954549289997
9.443976578877225 29.952467031206922 2.747671945862671
10.178284137125216 32.320728089870407 1.775863667235570
10.174846404932163 32.329505286905587 0.591601673411037
9.132816186054864 28.825191486557081 -0.527795675476328
8.238498072938583 26.034083652005279 -1.431074387507056
6.344949580917136 20.074730209290344 -1.841949467229008
3.702918386288597 11.722750556566670 -1.509473687416157
2.819530109878225 8.936967902511480 -1.484250204301711
2.086954401643928 6.623004124142210 -1.349782833293678
1.782386693719638 5.659896589896785 -1.369951920954138
1.479801998980711 4.704782713988223 -1.321530044293471
13.576324106105561 42.336065867909191 11.912923007978824
14.893323705355293 46.498777638128153 11.272297333171075
9.537099673420292 29.811810067432489 6.084135626576508
9.400936684120085 29.421565688607366 4.892018590738100
9.329090963569973 29.214300139844809 3.765518972532247
9.552937348096371 29.951355840728162 2.750460929630596
14.558162052935730 45.699349671353865 2.513591306436106
10.265619591352316 32.244139189374472 0.590659243463423
10.328725538707225 32.228179779998335 -0.590729053089172
8.436821216832140 26.356621995000975 -1.450334019404459
6.463665053877356 20.216786167952449 -1.856940254981605
3.722437867212305 11.649897655086406 -1.501674049438227
2.856958198331842 8.952033113824431 -1.488317500392756
2.138121425380639 6.707702846108324 -1.368482114840579
1.795822203401487 5.637243665952758 -1.365902801975948
1.498909927204366 4.710895120306507 -1.324635872834701
13.798563544752282 42.518106273946607 11.977627769254454
15.027902604207961 46.361232980138730 11.251601836171440
9.625986123651538 29.731642749521477 6.074595176807681
9.592926619310926 29.664864215464043 4.938010323459928
9.523801128598887 29.468669775710318 3.802567252927412
9.657428890986246 29.917827392545060 2.750460929630596
10.351468321915990 32.106229967963309 1.767908601886643
10.405094903253023 32.291855460330233 0.592195055229904
9.393589072242163 28.962084487940203 -0.531460680828158
8.544159824895925 26.374512522687201 -1.452950817216607
6.515181060644442 20.135336202056280 -1.851536598931250
3.742924830601876 11.574502888928496 -1.493630672773488
2.863903415998271 8.866815633982004 -1.475802743189538
2.167550322174749 6.718882867789227 -1.372298294748110
1.815488915218595 5.630940732619433 -1.365902801975948
1.514752725140285 4.703795391181169 -1.324118234744496
14.117800222397420 43.015428953550220 12.130848643955147
14.240934658024075 43.416179929717543 10.548854742401206
9.744991267062810 29.744502599342489 6.084135626576508
9.705018893109120 29.657481695918943 4.942390488481054
9.730272477687555 29.752220610342711 3.843515352311541
9.829236470574527 30.090370101264863 2.769460881549586
15.171731772131402 46.500407072100238 2.563415136779389
9.839546494244409 30.175452516989019 0.554009189945128
9.441624088371348 28.767619868649621 -0.528493771733819
8.643015735879599 26.365403880033554 -1.454102208253951
6.537688353194777 19.966673875743201 -1.838114614548111
3.801825982030282 11.617966509389296 -1.500942833377796
2.872743623578323 8.789170167785699 -1.464539461706641
2.192818250987946 6.716874722321927 -1.373443148720370
1.832715675170176 5.617158688461297 -1.364103193541197
1.534155697340221 4.707663152527321 -1.326706425195521
12.605083179485733 37.936485908949059 10.711485000612925
14.376439148642753 43.318117199415191 10.537157287575324
9.892001961487210 29.840752321067090 6.110848885929225
9.797307353242470 29.589669560597763 4.936758847739606
10.851836786354918 32.793722616685280 4.241296889185943
nan nan nan
10.505857435890917 31.822661247981546 1.756290019600709
9.910357532667641 30.036477270832535 0.552089425237027
9.783354089537276 29.461341992350707 -0.541862315064779
9.958599118292172 30.024106972294316 -1.657793749951489
6.619250348307476 19.979666092075529 -1.841426532772522
3.848596709774160 11.623469674709392 -1.503380220245899
2.897203517370035 8.760334145067464 -1.461410772405837
2.213172177960471 6.699858542781018 -1.371535058766604
1.855977577734506 5.621830117199372 -1.366802606193324
1.543924315596559 4.682097812985837 -1.321012406203266
12.726509230069054 37.881658466678132 10.707861533981488
14.936944305976631 44.486946114745734 10.834092679309226
9.956777649255892 29.688774982577723 6.086806952511780
9.896142736028080 29.542178762734896 4.934568765229042
10.628450863773557 31.746676432910050 4.110652953055625
9.911428984761336 29.639329220280647 2.734249961479532
10.831338631716257 32.409050419376690 1.790831750721052
9.988550106228372 29.922035034758295 0.550623423096295
10.415338679660874 31.002240720140883 -0.570868214563544
10.051905078452251 29.955079160411497 -1.655909655526743
6.581944034556141 19.637181189909430 -1.811967891723813
3.889146743675812 11.609964751002872 -1.503380220245899
2.920243584766920 8.727688089339296 -1.457656345244871
2.239657064379299 6.701402401826724 -1.373443148720370
1.871885860121064 5.604227137085855 -1.364103193541197
1.556590161526082 4.665684657324726 -1.317906577662036
nan nan nan
15.033856390234522 44.262930760239918 10.792251783201268
11.126936492733485 32.797703098507263 6.732122974875255
10.068419178825380 29.694656445213099 4.966168527167169
11.052495768516433 32.634435655692968 4.230572386966290
13.511017138927837 39.939533003287558 3.688779656051884
10.946320401586140 32.376720688005399 1.791145766458510
nan nan nan
10.092387128692353 29.697152818330903 -0.547481989937584
10.145492614185709 29.887657465712007 -1.654130233014483
6.699073311653255 19.757488932244367 -1.825215564621457
3.949399572929829 11.654600767766354 -1.510936119537018
2.957024424677247 8.736152335823228 -1.460785034545676
2.286929915525875 6.764217416593802 -1.387944632368987
1.898298932377631 5.617967022419457 -1.369052116736762
1.571013618085807 4.654731490071681 -1.316353663391421
13.037760278640963 37.928908045478579 10.746684390746866
11.504539303301170 33.487536589651334 8.174721314856056
11.229246704312974 32.723380752954249 6.724872233050945
10.055385893496032 29.335959733558326 4.911729333333168
11.458417393735164 33.448247772968706 4.341229750778163
11.094698836430060 32.423428397243562 2.998157550519441
10.849226161914011 31.724127584627606 1.757127394900596
nan nan nan
10.179736874565426 29.614465643696175 -0.546609369615720
8.745664718380834 25.471441533078110 -1.411396067959709
6.828110160641936 19.909255233647986 -1.841426532772522
3.984264706968040 11.623843206957686 -1.508742471355726
2.975343952610920 8.690268546532124 -1.454840524874147
2.300362965624623 6.726471282220310 -1.381838744516938
1.919158262707033 5.614994505514444 -1.369951920954138
1.587876257191972 4.651047512892134 -1.316871301481626
14.905570232965401 42.851123420537576 12.156730548465399
11.628398028104179 33.467422937787063 8.179670238051619
11.315724807569680 32.604230781083253 6.708462659448562
10.086452026564986 29.078685478956327 4.874810799583674
11.603698703559660 33.490577340153784 4.351954252997817
10.216049256822375 29.518851172843441 2.732855469595570
14.424732530433376 41.703215924570692 2.312621234463202
10.556669075270657 30.554812387617616 0.564271204930251
nan nan nan
8.409963056360159 24.218152873892521 -1.343568668668854
6.826395334385636 19.680121648406462 -1.822426580853532
4.023514793255357 11.606113543369430 -1.508254993982105
2.996611223495637 8.653696893219397 -1.450460359853021
2.328321067988916 6.731388331479279 -1.384510070452209
1.927285988262844 5.575108901676375 -1.361853682997759
1.605993398334022 4.650954610811165 -1.318424215752241
13.662325442607269 38.861209863079957 11.037596997442099
11.710911637327547 33.329185352158980 8.155825426291170
13.311729010525246 37.927427411945047 7.813246742678757
10.455351631540951 29.822421749051824 5.005277143427227
11.717906226804825 33.442375166934596 4.350979298250575
11.239169899221594 32.111997075613623 2.976542926318022
11.647467895963208 33.297202874780552 1.848715318325748
16.281821942664070 46.597847162806730 0.861590400995812
nan nan nan
8.502390160824254 24.211262337894439 -1.344824731618685
6.854820820300549 19.541488672672340 -1.811793580238318
4.065973443861231 11.597618055950829 -1.508986210042536
3.062056089326656 8.743859615866279 -1.467355282077366
2.331708466460150 6.665772384697912 -1.372679912738863
1.956381861716251 5.595940849335596 -1.368602214628075
1.626039955874364 4.656263352080699 -1.321530044293471
11.648153214831794 32.747983091402624 9.313344518969107
11.792602273650562 33.190780691336379 8.131980614530720
11.218687706765593 31.610445814062231 6.519943372016536
10.654396252488826 30.037095463167393 5.047827317918170
10.946198740441679 30.893974616434107 4.024369457924780
nan nan nan
11.070942651479061 31.298093617103472 1.739856529340425
nan nan nan
16.652927994332629 46.844456260846904 -0.867803457687485
8.171143032929292 23.010759338254889 -1.279718802052463
6.938310883690751 19.560630318951148 -1.815802744404710
4.103778752162687 11.575870507534230 -1.508011255295295
3.074755554460438 8.682841830313466 -1.458907820965193
2.353652745228047 6.653890845731958 -1.371916676757357
1.969408012601161 5.570704673313157 -1.364103193541197
1.640996889888015 4.646915834697666 -1.320494768113061
12.920718423311747 35.967442166267858 10.240434338526336
11.996110714400173 33.411935779520228 8.195866713964376
11.416238039899664 31.831789413982019 6.573369890721969
10.973888404260766 30.632034754943177 5.153577016285366
11.119518177731456 31.055609876591980 4.050205758726672
nan nan nan
10.964245758739237 30.672545839292681 1.707094220732342
nan nan nan
16.809530363756558 46.792739489602766 -0.867873267313234
8.262245274008711 23.024893912675317 -1.282021584127152
7.009860919624161 19.556269913687885 -1.817545859259663
4.178965183937792 11.664981639906072 -1.521416883069861
3.103531989528977 8.672597832247090 -1.458907820965193
2.388260782496181 6.681174422682999 -1.379167418581666
1.981969636094380 5.547626995019085 -1.360054074563008
1.656397595349400 4.641448542589562 -1.320494768113061
11.797554346845011 32.466396735662173 9.255886690956347
11.901890553392859 32.789178123345671 8.053247745510369
11.633687850598148 32.085207641369792 6.634047151251710
11.092143949981381 30.608322389620987 5.156392836656090
11.931242645548837 32.959693944797465 4.303937731696188
nan nan nan
13.853822487365104 38.333462479061254 2.136144390011995
11.024476111928911 30.538018028116781 0.566714541831470
11.266027797433576 31.020522660622458 -0.576069031681854
8.370493435916979 23.072891499860354 -1.286313132539073
7.080797624451994 19.539174522275545 -1.818243105201645
4.233854331332369 11.689518518201060 -1.526535395492877
3.127737614936389 8.644993782410538 -1.456092000594469
2.408898743466147 6.665411635145039 -1.377640946618653
2.003970520824919 5.548006191215917 -1.361853682997759
1.675211823752256 4.642907097782645 -1.322565320473881
11.998363791327277 32.680985361953383 9.328356023585053
13.201118492349787 35.976439672001284 8.847324967344210
11.688184434176524 31.887720191805702 6.601609622037697
11.172529202078531 30.513867882165005 5.146693899823595
nan nan nan
nan nan nan
11.128763134269606 30.460184015194418 1.699557843033358
nan nan nan
11.334957682970940 30.874008536338600 -0.574079457348004
nan nan nan
7.154441789058857 19.529305305162314 -1.819637597085607
4.251426838337435 11.611290022995380 -1.518248280141327
3.132789477501388 8.565381488773925 -1.444515850181492
2.432824422142545 6.658806435274577 -1.378022564609407
2.038029832095928 5.581248618822341 -1.371751529388889
1.695380384234708 4.647920541212073 -1.325671149015111
12.772395588743327 34.417462716439964 9.836676628166403
11.701537505737749 31.548727545257233 7.768459710711034
12.500607525576140 33.739231016836740 6.993912916531874
10.899123236610892 29.448361959511217 4.973364512559020
11.511608660304489 31.119921902296493 4.074092150034080
nan nan nan
11.169978908041605 30.245036253331701 1.689718683259684
nan nan nan
11.453094966919480 30.862375524854951 -0.574603029541122
11.290229199462457 30.456093737788528 -1.702279312757991
7.235022095646241 19.537843837840278 -1.822775203824523
4.298822145400615 11.614995792696842 -1.520685667009430
3.170204210034838 8.574774668182314 -1.447957408412377
2.459453966298710 6.659482080181191 -1.379930654563172
2.050751496257007 5.555818830662274 -1.367252508302012
1.704242690676012 4.622036047835847 -1.319977130022856
12.823113863801247 34.169654468471137 9.779218800153643
11.813668904257213 31.496504284561471 7.766210200167595
11.749370159471423 31.358361823544186 6.509258068275449
11.005881364115284 29.389646086634066 4.970548692188296
11.422500155733202 30.534616978690636 4.002920453485475
nan nan nan
11.138201913413065 29.822204786316941 1.668365613112563
nan nan nan
8.519678320864971 22.702322345298377 -0.423255760917000
9.480100615687409 25.288383615547101 -1.415373600634173
7.332436158293762 19.580231379535256 -1.829224728787850
4.336493457891647 11.586147840407595 -1.518979496201758
3.158719963981353 8.448380308960290 -1.428559534747388
2.485906381284186 6.655940497271153 -1.381075508535431
2.078597396498593 5.568347698794076 -1.372201431497577
1.717797005816597 4.606708133656976 -1.317388939571831
12.565821764172043 33.114575289643589 9.490376745819230
11.933901336753856 31.482408221709967 7.772958731797912
11.867102604251698 31.339190177955398 6.513837484164486
11.097915121190541 29.323337012427579 4.965855658237088
11.529016269923344 30.494558985020763 4.002920453485475
nan nan nan
11.254928892293993 29.816777786070002 1.670249707537310
nan nan nan
nan nan nan
9.647568222481922 25.464321038651001 -1.427096854832592
7.402854954861915 19.560107310700733 -1.829747663244335
4.397277763831104 11.624784299905112 -1.526047918119257
3.184001594877476 8.426215722273405 -1.426682321166906
2.502191605169768 6.628854947328790 -1.377259328627900
2.084952249163193 5.526415458457194 -1.363653291432510
1.742042356774723 4.622376649272447 -1.323600596654291
12.578572903723721 32.836804373017429 9.422048517912167
12.077951499375509 31.546395997902142 7.798603151993111
11.975169820559696 31.310667418389755 6.516127192109005
11.234592609608047 29.389702709726954 4.983376318321595
11.594668588368606 30.363435614321890 3.990733519144960
19.346270835665763 50.715988579352491 4.748942110834398
11.274764159384803 29.572140604640023 1.658631125251376
nan nan nan
nan nan nan
nan nan nan
7.455583923193952 19.503813146076741 -1.826784367990915
4.443596056673612 11.630536427703658 -1.528729043674170
3.226718192870374 8.454366964954753 -1.433252568698595
2.540246283810391 6.662713225156637 -1.386036542415221
2.085225157895047 5.472124948934083 -1.351955836606629
1.758735680966540 4.620185343565193 -1.324635872834701
12.978333211493421 33.529550715847364 9.633762496806026
12.160573453263433 31.433162515426652 7.781056969754292
12.179226538138938 31.514063661313202 6.567264002869919
nan nan nan
12.259424349508196 31.771040808742917 4.181337172230610
nan nan nan
11.434645964473511 29.679838533409526 1.666900206337761
nan nan nan
9.660347760997224 24.957528436566228 -0.467131110700331
8.715721697791647 22.540454669069600 -1.266530141079241
7.519312098433536 19.466518140112669 -1.825738499077943
4.446274777011182 11.516805196891559 -1.515810893273224
3.266161089520369 8.468854932057857 -1.437632733719722
2.555724149216129 6.633653575313182 -1.381838744516938
2.108515359448518 5.475724256628102 -1.354655249258755
1.773465277346191 4.610411952372998 -1.323600596654291
15.836644171976959 40.493545184100718 11.650480496244869
13.337259062413924 34.120291186262165 8.457709741220636
12.259164236399625 31.394549757530910 6.551236047258290
12.007247779068502 30.781123066208561 5.233045724525803
11.972211143044973 30.707133688860871 4.046793417111328
nan nan nan
11.522866078777465 29.615698003912790 1.665434799562958
nan nan nan
16.843647378534634 43.068404441053211 -0.807208702537237
8.784174188245917 22.483849293405555 -1.265064734304438
7.517676078232283 19.261972504204316 -1.809004596470393
4.482120381093726 11.490118434010579 -1.514348461152363
3.288530643587317 8.438996643720921 -1.434504044418917
2.564620416556187 6.588101618161925 -1.374206384701876
2.155174325056580 5.539159400126785 -1.372201431497577
1.786748364731713 4.596990822609747 -1.321530044293471
13.497758562340628 34.143667616116360 9.837711904346813
16.121910264439943 40.823344962205056 10.133145193973743
12.246913921339592 31.042926501155645 6.486742606821018
nan nan nan
12.053134708390862 30.598665063614895 4.038018824386157
nan nan nan
11.422993572507620 29.043545301370205 1.635603304504480
nan nan nan
13.310869599749680 33.688113252026788 -0.632265780409907
8.866270427647379 22.462338691251365 -1.265588093866868
7.560748723105196 19.174448097029490 -1.803252317449048
4.470522933888444 11.343277432499262 -1.497043014388832
3.336059633996189 8.473417403759459 -1.442325767670929
2.581134350798939 6.562666079649654 -1.370771822785098
2.188755462839527 5.567875495897890 -1.381199473671331
1.809845405266891 4.608707592197541 -1.326706425195521
13.411674533063884 33.616627721817565 9.697949619991451
16.373407192340295 41.061089967765142 10.205579433472469
12.059897728872215 30.274419425389731 6.334477028510534
11.049788251003468 27.752791295479852 4.731203960676742
19.480861231754147 48.978123521990753 6.471993350873762
nan nan nan
11.676289320785134 29.415915326361446 1.658631125251376
nan nan nan
13.429920241376337 33.662360950904542 -0.632614828538653
8.923702090111354 22.390140948148925 -1.263180639879692
7.610288863370271 19.114100082800171 -1.799940399224637
4.495636332421467 11.297035238448975 -1.492899456713057
3.388951601736601 8.524719857984865 -1.452963311293664
2.602158110531365 6.552246016016153 -1.370390204794345
2.185638369135157 5.506248726303687 -1.367702410410699
1.828678991298486 4.611659676471873 -1.329294615646547
13.588150674891653 33.716536063220772 9.740395943388265
15.868612031199849 39.394918517466685 9.805166556740389
12.138384189990514 30.164749138525345 6.320357162852670
nan nan nan
14.574665299193050 36.273911371725113 4.799945959355139
nan nan nan
11.743962109278787 29.287850656894442 1.653711545364539
nan nan nan
13.064469393854491 32.417115765332156 -0.610066319421682
8.859332526748133 22.004981845478106 -1.243188304594888
7.650198616127537 19.020873437758855 -1.793665185746805
4.552072504566826 11.323636047663641 -1.498505446509693
3.406909355781284 8.483508942938276 -1.447957408412377
2.625744862135217 6.544944959954128 -1.370771822785098
2.199768501631157 5.485924661201950 -1.364553095649885
1.844047180090561 4.603454978765003 -1.328776977556342
13.710130792656063 33.679634838707365 9.743501771929497
15.912538221790333 39.129068528616706 9.752078107915237
12.352883277915661 30.406257727973824 6.379507951419399
12.318190536009224 30.351240678356209 5.187992598594216
14.641147544143498 36.092936202082058 4.782396773904797
nan nan nan
11.775642835867391 29.072667909601567 1.643872385590866
nan nan nan
13.483898260742519 33.140445415241949 -0.624516911951753
8.902172435410547 21.901472037089057 -1.239001428095452
7.675752780449993 18.903099590752838 -1.784949611472039
4.700829317515153 11.582545471000543 -1.534822510844427
3.372675950278488 8.318391496924372 -1.421676418285618
2.656278679629182 6.558037552989841 -1.375351238674135
2.216485844035830 5.474987141898515 -1.363653291432510
1.863648505097476 4.608060160226818 -1.331882806097572
12.805765140157121 31.146234364269869 9.023467188454282
14.732586433657790 35.868251765354422 8.952152158668451
12.512606256789825 30.493725895036206 6.406984446753622
11.786970151588227 28.739602878258111 4.919863925515260
12.158484859444782 29.674950110998800 3.937598485420315
nan nan nan
11.890129012193245 29.077826846477446 1.646384511490527
17.436637067610299 42.663306316361478 0.804486127133021
13.439879335486028 32.704758365970278 -0.617186901248094
9.062005501414912 22.073502297564378 -1.250515338468900
7.740934124047352 18.874347671263166 -1.784775299986544
4.738972502379283 11.560555675267562 -1.534091294783997
3.382976712896096 8.260867234215436 -1.413854695033607
2.688818305905864 6.572347384919831 -1.380312272553925
2.241484195662377 5.481646940394616 -1.367252508302012
1.876069499539261 4.592584790476013 -1.329294615646547
12.863289474100901 30.978237634874716 8.987750160230135
14.796471403421721 35.669006067284748 8.915260185756058
12.591914619955629 30.384570512706176 6.393246199086510
11.860296163994631 28.647428738761779 4.910790726542928
12.269585909475699 29.650670800760569 3.940035872288418
nan nan nan
11.969447959501514 28.982610640234540 1.643349026028436
nan nan nan
13.707266344569902 33.027033772907799 -0.624167863823008
9.140531118640464 22.045425435637803 -1.250724682293872
7.796858824672155 18.823282318431865 -1.782509250675105
4.790687628470406 11.571454923942635 -1.537747375086151
3.446521370135903 8.332976773445267 -1.428246665817308
2.723739246974230 6.591953064076591 -1.386418160405975
2.252422545872788 5.453976312457735 -1.362303585106446
1.892089182480272 4.586008106224218 -1.329294615646547
11.327048204692510 27.011944053284065 7.848428723688840
11.954933377536303 28.537208458810891 7.143095779635090
12.782032057924987 30.541457373673175 6.435605796060104
11.957936119510171 28.600386569483184 4.909852119752686
14.865218233695890 35.571320156320219 4.733649036542738
15.110042906746216 36.192672400483666 3.431321591975302
12.053629091368780 28.900099116662446 1.641046243953747
nan nan nan
21.039804019367498 50.198803272867117 -0.950074101632840
9.267569162213814 22.133132816117939 -1.257528356605454
7.832530711444669 18.724267375090516 -1.775711102740787
4.818798525843829 11.525358495161008 -1.533847556097186
3.461122135280620 8.286262978043457 -1.422302156145779
2.745220761545896 6.578781604582690 -1.385654924424468
2.263195130528950 5.426296354138691 -1.357354661910881
1.908828834981370 4.581158788838829 -1.329812253736752
12.852478274524334 30.366916950502848 8.835564561709852
12.803845146164047 30.266725972314148 7.587149160909879
12.629477955801338 29.883610185441071 6.306237297194805
12.006217879936282 28.436543245463621 4.888889901437295
nan nan nan
15.167400416430832 35.976312835037682 3.415807869766219
nan nan nan
nan nan nan
21.217240606971949 50.130579462473300 -0.950178816071464
9.332326576101426 22.071214927984222 -1.255853606005680
7.721852863321389 18.280185938322592 -1.736142395533351
4.782559525892061 11.327419020881152 -1.509717426102967
3.486954650589851 8.266850562843878 -1.421050680425457
2.774267236209248 6.583632413681473 -1.388707868350493
2.277584124434462 5.407587605557565 -1.354655249258755
1.927056166851016 4.579809747054804 -1.331365168007367
11.446236221946901 26.770565730716839 7.801323657480180
12.173770764341045 28.499646930258397 7.154793234460970
10.546058312909352 24.712934859923934 5.222823821446784
12.258021995356408 28.752434926229881 4.950525080663146
17.964469357101752 42.157880668630384 5.626707585015660
nan nan nan
12.256657816712016 28.818921202217432 1.641255587778718
nan nan nan
12.409178117583650 29.036721938935926 -0.551181900102288
9.369316393246100 21.944825306014717 -1.250515338468900
7.705883368360698 18.066190727588861 -1.718362624012828
4.809614353041313 11.281438698549243 -1.505817607114002
3.539011963764782 8.309150439687739 -1.430436748327871
2.796462818857424 6.572101789025338 -1.388326250359740
2.299496994221742 5.406777579353979 -1.356454857693506
1.948319132807270 4.585501270539826 -1.334988634638802
11.554926866960475 26.765920507608048 7.811676419284281
13.079548614450344 30.312103597301636 7.621791623278834
14.302550348016778 33.178266109474521 7.022915883829108
nan nan nan
nan nan nan
11.151163354571487 25.930075698567972 2.469470815012146
nan nan nan
nan nan nan
12.501253360286503 28.957998396654073 -0.550553613470546
9.444148496429262 21.897499915342880 -1.249782635081498
7.791757509374430 18.083570037470857 -1.722720411150211
4.933375992579076 11.455170893942446 -1.531410169229083
3.580372803865858 8.321527204215908 -1.434816913348998
2.822857885017432 6.567219153585582 -1.389471104331999
2.330837177327395 5.425170464798734 -1.363203389323822
1.962826847818488 4.573003820808498 -1.333435720368187
12.879943474644689 29.537217009964035 8.634203344620092
12.344707693556103 28.336768429542033 7.135897345896086
10.986659675046756 25.243486921185877 5.351429084330576
13.789926038322692 31.699527695036270 5.475206276408080
nan nan nan
11.218596581347409 25.837993761101906 2.464415781932782
16.018614395428454 36.910737669959069 2.108720348940693
nan nan nan
10.965955196499731 25.159905006703397 -0.479068556703432
9.766115645041936 22.428406583292965 -1.282021584127152
7.784097853894939 17.893658371675226 -1.707206688941128
4.986788358287148 11.468828040451228 -1.535553726904858
3.616481966683666 8.325284998580495 -1.437632733719722
2.841856616391832 6.548320689535567 -1.387563014378234
2.331148392814373 5.374094331938066 -1.352405738715317
1.979545810890907 4.567896980016279 -1.333953358458392
13.333389011954825 30.302431591648734 8.870763951843797
11.271447525780617 25.628446020096341 6.463743595516617
11.039959813635354 25.125896797262509 5.334637892737440
14.592100115317900 33.241731911105902 5.749905197018726
nan nan nan
nan nan nan
21.842938363780906 49.854139198508285 2.852518959065410
nan nan nan
9.926193867322617 22.558991593232449 -0.430201818679039
9.829878372343783 22.361268729488188 -1.280137489702406
7.890574473160925 17.966709700468307 -1.716793820643371
4.970938417253009 11.324113794934835 -1.518492018828138
3.711370048912800 8.462762013522596 -1.463600854916400
2.875727394979495 6.563536070952646 -1.392905666248777
2.356147154979005 5.380204935178005 -1.356004955584818
1.997801712124954 4.566268861393521 -1.335506272729007
13.468683617963165 30.308085597764865 8.886810732640152
11.056396498085499 24.903224864387919 6.290531283671841
11.138742616410115 25.112331964765385 5.339980544607983
16.071694793700932 36.250758089199785 6.280530902435189
15.703099788814271 35.452762788800570 4.760947769465492
