# This PCD file was generated using the MATLABÂ® pcwrite function
# from Computer Vision ToolboxÂ®.
# .PCD v.7 - Point Cloud Data file format
VERSION .7
FIELDS x y z
SIZE 8 8 8
TYPE F F F
COUNT 1 1 1
WIDTH 973
HEIGHT 1
VIEWPOINT 0 0 0 1 0 0 0
POINTS 973
DATA ascii
-24.745650043898383 10.300619936578048 -0.467864111770696
-15.518587785326462 6.453409919849011 -0.880814143568745
-9.942972719025219 4.130718166142612 -0.941979267616689
-7.072958285258458 2.936949187809660 -0.940343853714118
-5.645355788046888 2.341846737259971 -0.968016469668949
nan nan nan
nan nan nan
nan nan nan
-26.264755273789532 11.040686489535217 7.634126554343952
-26.571765641447868 11.164285027806750 6.654052187491527
-28.341273366131482 11.896116519246398 5.974611263230371
-22.685719964121731 9.517567858196882 3.896469655222071
-23.560410829566958 9.874865418112588 3.136673160561686
nan nan nan
-24.183513248818169 10.121142479798761 1.373923523289761
nan nan nan
nan nan nan
-15.554893663327972 6.532287024605504 -0.884163644768293
-9.937679490496295 4.169254449644779 -0.942850825044166
-7.062663328537282 2.961620526758410 -0.940343853714118
-5.637146823979877 2.361538439099236 -0.968016469668949
nan nan nan
nan nan nan
nan nan nan
-28.156101583671358 11.939958571259547 8.194728606036012
-28.928260445402913 12.261446070950642 7.253771698372272
-26.244615213251162 11.113158882450595 5.539948371762602
-22.268053871437420 9.420137273424549 3.829515704184852
-23.617033489060073 9.985941870340076 3.148372617528580
-24.002838524235226 10.139195958485649 2.279645607307747
-23.820315617883317 10.052298181789787 1.354977907129816
nan nan nan
-23.901728190934467 10.135836579974850 -0.453169185550504
-15.560041586385710 6.592029354683588 -0.885629051543095
-9.928202009118984 4.202007099873783 -0.943199448015157
-7.042354885601289 2.979153460537855 -0.938881421593256
-5.644256458061715 2.385388246989937 -0.970519421109592
nan nan nan
nan nan nan
nan nan nan
nan nan nan
-29.085938225728842 12.448226118327554 7.304160734545296
-29.263622336508639 12.512187353186352 6.186409248098337
-23.246958229392057 9.934855799742666 4.004096567169749
-23.717130900446662 10.126000104699550 3.166409280352541
-22.995999315255119 9.808624924547589 2.187260519995229
-23.796172916727137 10.145019431117561 1.355710610517217
nan nan nan
-24.338636152729659 10.421497833899217 -0.462139722459267
-15.595697920303556 6.671440587414606 -0.888978552742644
-9.928130552522433 4.242901132571497 -0.944593939899119
-7.042865930116753 3.008396404595439 -0.940343853714118
-5.628628077885225 2.401974523362591 -0.969267945389270
-4.661229164264896 1.987221248132666 -0.984956034133724
nan nan nan
nan nan nan
nan nan nan
-27.752228405111762 11.997961940164540 6.980231216290131
-29.192333703833132 12.608461629280752 6.181066596227792
-22.717091172864020 9.807035295419965 3.918996218187864
-22.742944165898194 9.808779211285525 3.041127595332050
-24.833574071491906 10.700165224853752 2.365755481142434
nan nan nan
nan nan nan
-24.215849035096699 10.474116089253590 -0.460534101067037
-15.622476561884321 6.750739793214904 -0.891909366292249
-9.994827505337039 4.314796527891778 -0.952437956746409
-7.053664127269275 3.043627195535041 -0.943268717955841
-5.619786594753839 2.422588342964177 -0.969267945389270
-4.653914325710982 2.004292159283588 -0.984956034133724
nan nan nan
nan nan nan
-27.818480815691984 12.147813898840637 8.133647311391817
-29.260448368240269 12.771414058643591 7.370746246631080
-29.664629715661114 12.935502820224752 6.290590959573930
-23.012294715915182 10.029918346517560 3.975938363462508
-22.726766920956326 9.896032210924245 3.043564982200153
-30.061492224580796 13.077347977127538 2.868121182339935
-30.231128093123552 13.138595200791404 1.727505243667090
-29.492633980295832 12.811522843713801 0.561269391023038
-29.383684327107094 12.831309201709843 -0.559663769630808
-15.626276387872613 6.817210920252793 -0.893479444979537
-10.030845672440202 4.371948312113086 -0.957318678340277
-7.028437745612183 3.061887939962993 -0.941318808461359
-5.620352265781772 2.446131859311355 -0.970832290039673
-4.632486309644035 2.014262374270334 -0.981903090207700
nan nan nan
nan nan nan
-27.876666588069725 12.289263534453278 8.163152682533504
-26.778203520506917 11.793850352956250 6.755280161946266
-29.583834161873494 13.017198575381904 6.282576981768115
-25.244741201871360 11.097435416464025 4.367650263923246
-29.741687747094005 13.068072362431353 3.988783609650477
-24.825842455273616 10.897782929096794 2.372030694620265
-29.623592318699252 12.997681771044265 1.695370966533922
-29.413357941632697 12.893197214844646 0.560571294765546
-30.892746639540988 13.612445413000426 -0.589263050948441
-15.711434233461684 6.916469840212901 -0.899655087816205
-10.034530585466651 4.413208855942285 -0.959061793195230
-7.014611001096244 3.083580534012888 -0.940831331087739
-5.615826977473376 2.466344797288330 -0.971458027899834
-4.622185671350491 2.028035553438653 -0.981139854226193
nan nan nan
nan nan nan
nan nan nan
-28.056354160709454 12.473895473816032 7.088657624483874
-26.667466187990911 11.845246853080340 5.671988196563171
-22.192428948117918 9.852872270244131 3.845784888549036
-23.206889285689879 10.293570785999279 3.117174065616862
nan nan nan
-29.529191610422718 13.073206690154757 1.692440152984318
-29.476063636991235 13.043533385835305 0.562630678725146
-23.697440848642870 10.540870266295176 -0.452715422983134
-15.763851981637394 7.005336389730052 -0.904051308140612
-10.008138562472528 4.443358189834795 -0.958015924282259
-7.021949132331928 3.116099245638498 -0.943268717955841
-5.612601182685707 2.488334533168404 -0.972396634690075
-4.624053605566464 2.048133050436748 -0.983047944179959
nan nan nan
nan nan nan
-26.440332996657872 11.877210469574228 7.766641905436442
-28.140650233960329 12.629203423001478 7.121050576309391
-25.246558515657764 11.319781978755129 5.378142343683292
-23.306194557482335 10.440012965197628 4.044769528080209
-22.681636831681981 10.155489579060811 3.051364620178083
-22.984997706569082 10.281686345089994 2.202948553689808
-24.481651865561702 10.940918028441732 1.405325097035528
-29.384708190861151 13.125955067032521 0.561758058403282
-27.225083379359450 12.224016604093173 -0.520919427340038
-15.786682849446359 7.081573535614720 -0.906772777865245
-10.025294123958309 4.492932852595566 -0.961153531021174
-7.020087313151331 3.144649049648903 -0.944487411389893
-5.587653625473017 2.500648717081646 -0.969580814319351
-4.633006505874279 2.071473625632657 -0.986482506096737
nan nan nan
nan nan nan
nan nan nan
-26.921273766826506 12.195038935764961 6.823215380358113
-28.451431191501868 12.876215857827352 6.070397378909396
-27.816255788019337 12.577059024350852 4.835076445463456
-24.313886862109999 10.988359882122838 3.276091689417175
-22.974390074242208 10.373334876134104 2.205388914486742
-28.659810375622808 12.928358783560464 1.647745246352843
-29.404337579416850 13.258037035708689 0.563014631666766
-25.788893437775833 11.687508227560825 -0.494217245490994
-15.738214558880417 7.125926713840790 -0.905412043002928
-10.045855731726668 4.544323574455401 -0.964639760731081
-7.025346795634182 3.176495139697477 -0.946681059571186
-5.591492250718906 2.525830503859037 -0.971770896829914
-4.632905317438427 2.090863596441452 -0.988008978059749
nan nan nan
nan nan nan
nan nan nan
-28.341168518669861 12.951674419576321 7.193934717916803
-27.397746878058612 12.508979652909604 5.854401596143148
-27.677345382248042 12.624962550473983 4.818181523239111
-28.933732636014103 13.191960800337023 3.904450024014115
nan nan nan
-23.695828857765292 10.783831035684299 1.364398379253546
-29.542233054035616 13.438271396948428 0.566505112954223
-25.642695246490874 11.723905541027150 -0.492157861531395
-15.736298059395198 7.188035359646130 -0.906668105952759
-10.027105847527450 4.575957487140605 -0.964291137760090
-7.005744182152770 3.195655389501655 -0.945462366137134
-5.602858230034642 2.553369601453611 -0.975212455060799
-4.634880138212846 2.110282991178100 -0.989917068013514
nan nan nan
nan nan nan
-29.210685827020988 13.484860303196301 8.620744754274760
-29.481413132687972 13.597357143715799 7.495369130737582
-24.506369485415640 11.292405312314386 5.244957664910464
-24.414029840444144 11.239525736471004 4.256894662674762
-23.298995012252732 10.721267484038316 3.149103833589011
-26.893034479360189 12.363727605724142 2.589571428518419
-23.785089305275573 10.924833917778585 1.371725413127558
nan nan nan
-25.636113585028660 11.829262515696096 -0.492821052976012
-15.709297465491144 7.242085326808474 -0.906563434040273
-9.998404025280259 4.605096228999576 -0.963070957361623
-7.023397508618517 3.233372678393845 -0.949362185126099
-5.608268339240506 2.579515229449569 -0.977715406501443
-4.641756989864358 2.133006939143461 -0.992970011939539
nan nan nan
nan nan nan
-29.178686340300189 13.581452962759309 8.623850582815992
-27.951984409357092 13.004539735225759 7.117451359439888
-24.839095390373739 11.545736071824139 5.324334206987106
-25.903074356591226 12.029302292016469 4.523458991103316
-28.692020668189222 13.318392568440508 3.883975974322050
-24.032221980318440 11.145191338571335 2.317645511145726
-23.456882901146088 10.873397786943617 1.354977907129816
nan nan nan
-29.246171576181034 13.612864505626835 -0.563084441292515
-15.754014016171981 7.326142335922156 -0.910540966714737
-10.017408948224979 4.654177274427375 -0.966382875586034
-7.030640843305815 3.265006417634084 -0.951799571994202
-5.597891623594995 2.597267342811297 -0.977402537571363
-4.631095780632563 2.146736496254312 -0.992206775958033
nan nan nan
nan nan nan
-29.098988663817636 13.674339310238031 8.615050735282505
-27.691212265509517 13.000991457161875 7.062563302179986
-26.776916611032298 12.560325357937931 5.749075030695295
-23.032906705199391 10.799207736141737 4.029126081576186
-22.278123433751947 10.435835588381261 3.020653545639985
-32.694666280492676 15.301386223314024 3.158175494204142
-29.005282034412492 13.568551832986810 1.678204772886237
nan nan nan
-24.793002679830181 11.645566947334384 -0.478126126755819
-15.777162744706155 7.403998936550245 -0.913367108351856
-10.049808472902509 4.711952807190082 -0.971089285694407
-7.015606029651783 3.287843265020726 -0.951312094620581
-5.604892235805989 2.624330580501446 -0.980218357942087
-4.636022141624794 2.168712121222602 -0.994878101893305
nan nan nan
nan nan nan
nan nan nan
-27.717866506885382 13.131780829755348 7.081009288636183
-28.234140536469891 13.364308171995830 6.071923850872409
-22.995182842871579 10.874683725079679 4.028813212646106
-22.740482915954704 10.749377028681476 3.088412900573247
-27.913705189925100 13.182829070967744 2.700782156264431
-28.739200057214024 13.566552043182776 1.665539471475445
-28.695799500551718 13.533817674580101 0.553799761067880
-27.365114046645733 12.970507347613227 -0.528598486172443
-15.785518569630440 7.475267694907302 -0.915355874689088
-10.101736973327077 4.779383974165045 -0.977713122143229
-7.013059269530110 3.316555559592782 -0.952530788054633
-5.588553262034794 2.640503793012475 -0.978966882221765
-4.623097530128000 2.182367397781749 -0.993733247921045
nan nan nan
nan nan nan
nan nan nan
-29.143448606360263 13.931943415884025 7.457577353607813
-27.964101607607898 13.356169852397523 6.023839984037520
-26.629210190477686 12.712893708595930 4.673636077541937
-28.178303393727152 13.440361271753371 3.833278327465509
-27.910684884724457 13.300756602380391 2.704965631916319
-31.450483177937343 14.980902143578145 1.825687497578852
-29.043819357033993 13.822092384519403 0.561443915087411
-24.875261131586438 11.896882598934582 -0.481302464727405
-15.813391722775659 7.556156910833285 -0.918496032063664
-10.084992266655208 4.814616498984482 -0.977713122143229
-6.996064906463901 3.338450748370553 -0.951799571994202
-5.586434513645483 2.663395839056576 -0.980218357942087
-4.638493289258018 2.209467297111829 -0.998694281800836
nan nan nan
nan nan nan
nan nan nan
-29.735297279811235 14.342604788969377 7.621791623278834
-24.252775753995220 11.687716659803087 5.233127507197119
-24.241107497420813 11.671668438630958 4.261274827695889
-28.217074716630815 13.579960982024037 3.844977784432403
-27.849721756086073 13.391194913052770 2.703571140032356
-27.812124542027206 13.367140828055136 1.617181047906964
-28.982775856308173 13.917330731603654 0.561199581397289
-27.309916099387280 13.178615700150580 -0.529296582429934
-15.858882638053334 7.646005344145140 -0.922682908563100
-10.118384526166142 4.874000402020042 -0.982593843737098
-6.986157486998118 3.363712398741557 -0.952043310681012
-5.584223956802418 2.686305225748674 -0.981469833662408
-4.628983060884362 2.224794742739667 -0.998312663810082
nan nan nan
nan nan nan
nan nan nan
-27.025119115632716 13.151849647687648 6.938840222290860
-27.587679406729148 13.413712626980702 5.962781105517025
-24.347405660758209 11.832969479362914 4.287555817822648
-24.374876298890740 11.835804000231374 3.327033074960526
-28.017916859249613 13.592685429372398 2.724488518291794
-28.962167985781186 14.044537839188919 1.686892541622566
-28.559701287123850 13.837059425802432 0.553939380319379
-24.735864003154148 12.043117385875338 -0.480220415528293
-15.920102462510890 7.744125953717783 -0.927811832274908
-10.135356789339648 4.925837652756919 -0.985905761961509
-6.985086700651409 3.393282567489280 -0.953505742801874
-5.590807024915483 2.713544280350010 -0.984285654033133
-4.621188876618146 2.240939354801270 -0.998312663810082
nan nan nan
nan nan nan
nan nan nan
-27.054264709381822 13.283035513152987 6.958186012964433
-28.816814091553006 14.135925989053970 6.239072530822262
-27.181573715197398 13.321998708624617 4.794403484552996
-23.861006211193121 11.689386326013436 3.262442322955798
-28.220832544682615 13.813030173106911 2.748892126261139
-29.017022058144597 14.196457636408292 1.692963512546747
nan nan nan
-24.451368966399322 12.010369001748842 -0.475508265790227
-15.946762823204493 7.826048035466607 -0.930951989649485
-10.112733915472850 4.958555176470605 -0.985382827505023
-6.980329439230635 3.421138921151299 -0.954480697549115
-5.600815964828361 2.742599402442309 -0.987727212264018
-4.625682944521522 2.263096186430480 -1.000983989745354
nan nan nan
nan nan nan
nan nan nan
-27.110763069820489 13.428423931464520 6.984730237377009
-23.604701303734000 11.681552348268163 5.119405345952697
-26.606697523586313 13.161407045525348 4.701481412319099
-27.137247164197422 13.412062926137439 3.716771235170188
-28.220678508925616 13.935273072185117 2.753598536369512
-29.103404776995188 14.364842720257785 1.700918577895674
-28.227460324150307 13.920242947334829 0.549366849832810
-23.938060222384937 11.862133480368835 -0.466328300004215
-15.990943561266821 7.917112056892773 -0.935138866148920
-10.120365502847909 5.006192509025088 -0.987823188301958
-6.986139457034613 3.454282453213604 -0.956918084417218
-5.582353128657831 2.757758572736964 -0.986162867613615
-4.621276055604961 2.280966925152749 -1.001747225726860
nan nan nan
nan nan nan
nan nan nan
-27.853409426690785 13.917559808736380 7.188535892612550
-27.700397361572666 13.829022715353508 6.018115714176223
-26.516946788577663 13.226641018703528 4.693346820137006
-28.380023827720567 14.149757916619604 3.893725521794462
-24.371506311332933 12.140564629064597 2.382140760778993
-29.153206210485294 14.516198296412163 1.706780204994884
-28.162584270342546 14.010674085900405 0.549052706516939
-24.601240151627721 12.297909148753140 -0.480080796276795
-16.029321608180918 8.005902182654253 -0.939011726910898
-10.131352930019377 5.055722632021536 -0.990612172069883
-6.981144689926977 3.482191801699706 -0.957893039164459
-5.581532676572600 2.781633321360935 -0.987727212264018
-4.615043283009482 2.297959372255798 -1.002128843717613
nan nan nan
nan nan nan
nan nan nan
-29.731041963734629 14.985678819230962 7.686577526929868
-27.672997741457525 13.936227444024263 6.022695130065260
-26.567668098941212 13.367955379882989 4.710554611291432
-23.927045606388496 12.034050241772611 3.288522362444500
-24.366364729988689 12.244349635348572 2.385801301974395
-24.383442271688857 12.247601391737012 1.430027668382197
-24.501465865936193 12.296175117653116 0.478510079697439
-24.547449385922409 12.378306350883706 -0.479871367399547
-16.029816812926175 8.076184612492327 -0.940686477510672
-10.127880489648625 5.098223569643241 -0.992006663953845
-6.984906461367635 3.514569572326903 -0.960086687345752
-5.578848559244439 2.804648624646058 -0.988978687984340
-4.606993791451599 2.314054879668074 -1.002128843717613
nan nan nan
nan nan nan
nan nan nan
-27.924808585297551 14.191585583553870 7.231726495046573
-27.642386027413096 14.035917485041356 6.026129691982038
-23.804641157347014 12.082008239526978 4.228110721107361
-23.701109699253809 12.019058371688656 3.262929800329418
-24.380722699032425 12.352999454448417 2.391204958024749
-24.242913950580316 12.277858863483260 1.424166041282988
-24.480182530966768 12.387288797636565 0.478894032639060
-24.834252581956754 12.626397466583239 -0.486293852968468
-16.143620590610638 8.200757378085269 -0.948955558597058
-10.146451496242944 5.149815524176987 -0.995492893663752
-6.990916327405754 3.546694279152125 -0.962524074213855
-5.562469543214825 2.819560876264353 -0.987727212264018
-4.601046223202440 2.330206520057791 -1.002510461708366
nan nan nan
nan nan nan
nan nan nan
-27.885505618916053 14.294308593402457 7.234425907698699
-30.673892644012451 15.710137341610308 6.698922209679735
-26.740964464211451 13.689932731690284 4.758110688663662
-30.979218878991176 15.846045069775490 4.272495441097660
-24.105043702648469 12.319251881091384 2.368370153424863
-24.281725065293326 12.404203211015437 1.428980949257338
-27.571542725918885 14.072657140094870 0.540326503298298
-26.717072521464903 13.701250290085479 -0.524095765311624
-16.178886575446921 8.289846961185395 -0.952723747446549
-10.169203788389536 5.206084319966131 -0.999502057830144
-7.003233627160276 3.583735705096927 -0.965936415829199
-5.577217025309221 2.851549965288591 -0.992107377285144
-4.606870958364255 2.353398013560176 -1.005563405634391
nan nan nan
nan nan nan
nan nan nan
-27.952210904705460 14.445751562325857 7.264119446872089
-22.890338006987996 11.819644307328772 5.007591274662042
-22.763427558258972 11.749081071653576 4.057284285283428
-30.764185111850942 15.864982912137485 4.250071481911113
-23.633679547389615 12.177364291004329 2.326012462449501
-27.830715979600988 14.333760612075206 1.640627556303803
nan nan nan
-24.848983186424967 12.847493837141602 -0.488283427302318
-16.271972064558899 8.405785480553330 -0.959841437495590
-10.194375194156784 5.261709394354626 -1.003685533482031
-6.991311025146663 3.606939560103239 -0.965936415829199
-5.576509418942484 2.874554436686043 -0.993671721935547
-4.606022946318753 2.372257700256438 -1.007089877597404
nan nan nan
nan nan nan
nan nan nan
-29.389494318716952 15.318766089306200 7.651485162452225
-27.273506463238661 14.203739438927210 5.977282589165642
-29.618859439479046 15.418602299116328 5.288736394080125
-23.001965190302052 11.963861995608355 3.183470988429262
-28.152243696693237 14.630159533400779 2.775736095027417
-27.619224359034831 14.347038256239232 1.631102412267587
-32.409276718578198 16.820908192146170 0.637361883089594
-24.773842866272453 12.918436594912629 -0.487690045483450
-16.262015215595067 8.472685401409805 -0.960992828532935
-10.191851731995508 5.305542195785598 -1.005254336851489
-6.996287446310376 3.640484877986640 -0.968373802697302
-5.559430745968495 2.890357734897586 -0.992420246215225
-4.601198596802425 2.390131288074505 -1.007853113578910
-3.936330519294705 2.043887652987010 -1.023977199373274
nan nan nan
nan nan nan
nan nan nan
-27.405484994069266 14.400406681321579 6.017734096185470
-23.226533044024329 12.194202466812682 4.154899391468533
-22.940383453320379 12.038863577612430 3.181033601561159
-22.938936262696757 12.027893566791406 2.266049311439112
-27.353136847994115 14.330282226528793 1.618332438944309
-26.625494635165555 13.943149213269095 0.524619337504742
-24.025524571234723 12.640439962373822 -0.473867739585122
-16.250298657413140 8.542454450895489 -0.962144219570279
-10.204087460680450 5.359537739664306 -1.008391943590405
-6.996958114077071 3.673485135863407 -0.970323712191784
-5.561044858055899 2.917138046216195 -0.994610328725788
-4.592407422343427 2.406979469927883 -1.007853113578910
-3.901193785937520 2.043831692267672 -1.016778765634270
nan nan nan
nan nan nan
-23.126152334213163 12.265346248852937 6.043535026002277
-30.120220338348670 15.961299669942967 6.626033173445895
-22.933806619395266 12.147950849977557 4.110472003397106
-22.856111773806056 12.096581250726643 3.175183873077712
-22.495236482331482 11.895538318834570 2.226306292746180
-27.035565870112205 14.290438547175624 1.602631652071426
-28.818791297512341 15.220146557872484 0.568878640229693
-23.933560819825935 12.698921691828689 -0.472925309637509
-16.340375039071972 8.662740613283690 -0.969261909619320
-10.181795730838765 5.393258788453241 -1.008043320619414
-6.998127480927064 3.705317768460147 -0.972273621686267
-5.556066543915119 2.939303127712420 -0.995548935516029
-4.585713215191769 2.423912752982711 -1.008234731569663
-3.918158059675179 2.070182132790122 -1.023077395155898
nan nan nan
nan nan nan
-23.230158941026616 12.414172372302621 6.080876901023359
-23.213575610676799 12.394895042222773 5.115207548054413
-23.913263594685326 12.763130560200556 4.293187458564096
-22.488697110541519 11.992718040638966 3.129360999957377
-28.801912020389402 15.346503528306567 2.855222132413281
-27.127033120323755 14.441923712391194 1.610586717420353
-28.610191504351047 15.225121312803362 0.565702302258108
-23.951743162473779 12.805160925081472 -0.474077168462369
-16.443443348542964 8.783669559583052 -0.977007631143275
-10.263233514052832 5.477754585484297 -1.017804763807152
-6.991706655216523 3.730087885442176 -0.973004837746697
-5.548548229901124 2.957672701112556 -0.995861804446110
-4.586739685813932 2.442921720953050 -1.010142821523428
-3.894433504657869 2.073323364474809 -1.018578374069021
nan nan nan
nan nan nan
-23.293044801756395 12.552502491072577 6.108770831761998
-23.406986265973998 12.603363566136961 5.167489212787586
-23.082340356001119 12.423363623686779 4.151770702167727
nan nan nan
-29.994272184882895 16.116503798102435 2.978983287114956
-26.925122198692996 14.455280152525864 1.601584932946567
-28.858175061939018 15.486589693452842 0.571671025259659
-24.008989899923542 12.943729416459284 -0.476101647609094
-16.483017484552047 8.878901730626559 -0.981194507642711
-10.321244472393619 5.555094117489536 -1.025474469168946
-6.996125194992104 3.763875758102972 -0.975442224614800
-5.545149933089923 2.980763882978417 -0.997113280166432
-4.579913928409993 2.459846492263432 -1.010524439514181
-3.900908121276148 2.094279064963624 -1.022177590938523
nan nan nan
nan nan nan
-23.183533459880366 12.603353520184379 6.092124453740552
-22.663663493763735 12.310487410841287 5.013315544523338
-22.988485478559681 12.476534647051212 4.142697503195394
-23.054882967219793 12.507361952343475 3.220519268824428
-29.892962159652161 16.203542927499633 2.974799811463068
-26.988831396820402 14.623258860622286 1.608702622995607
-25.600693693948653 13.859571703112758 0.508144265827947
-23.935036996834985 13.017308840706070 -0.475578075415976
-16.359109550359666 8.889667012689467 -0.975751568193445
-10.285056195760770 5.584329882589917 -1.023905665799488
-6.964835925309202 3.780023560673110 -0.973004837746697
-5.548079546582509 3.008601125822515 -0.999616231607075
-4.576045853045255 2.479422027700001 -1.011669293486441
-3.884638208236209 2.103922218603381 -1.019928080395084
nan nan nan
nan nan nan
nan nan nan
-22.606778626985040 12.381978548824426 5.010262600597313
-26.922600580538312 14.739693275785287 4.861357435590214
-22.965803400715540 12.562992630173008 3.214182062967359
-29.566983345944330 16.160632047360036 2.947955842696790
-27.311803541889041 14.915623322159984 1.630893068442616
nan nan nan
-23.891205643168014 13.101739930592984 -0.475612980228850
-16.433072349781465 9.004301334791720 -0.982031882942598
-10.286471987256679 5.631678913355902 -1.025997403625432
-6.986426397594521 3.823372026946959 -0.977879611482903
-5.546209720694194 3.032687782776523 -1.001180576257478
-4.563917409939101 2.493497707669810 -1.010906057504934
-3.889242645558070 2.124007600620461 -1.023077395155898
nan nan nan
nan nan nan
-23.306470580086057 12.881789598653443 6.147912315217831
-22.577168479261353 12.468408347102221 5.013315544523338
-23.355692035358068 12.887716647274004 4.224982031806555
-30.496941265730680 16.821329228514674 4.276395260086625
-29.649987123591423 16.340675122211838 2.961900761536415
-27.219332503367720 14.988710040381106 1.628485614455440
-25.436742558013460 14.001316497775498 0.506817882938713
-23.840076520939657 13.182153062565581 -0.475508265790227
-16.628806372284799 9.187169158866483 -0.995639231565763
-10.258029759378564 5.662736657761925 -1.025125846197955
-6.986942137379743 3.855408367310604 -0.979829520977386
-5.556348337418425 3.063474300883211 -1.004935003418443
-4.560344434362645 2.512255479157291 -1.012050911477194
-3.902289238770186 2.148850706988833 -1.028476220460151
nan nan nan
nan nan nan
-22.359165733443060 12.460290550446720 5.909464197613334
-22.972617302549718 12.791646868343514 5.111009750156129
-23.531516423994947 13.092095181538793 4.265029254856854
-31.551815240914021 17.547092232935803 4.432875497018834
-23.465921669506329 13.039515311099422 2.348672955563892
-27.116207506009605 15.055516144230456 1.625450128993349
-27.468387393354622 15.244782754437804 0.548354610259448
-23.743265609344466 13.237051625087243 -0.474496026216864
-16.526843445679891 9.206280679493803 -0.991452355066328
-10.269536725435813 5.715950814718355 -1.028263452936871
-6.990788553723983 3.889425037055400 -0.982266907845489
-5.549074029451953 3.084770495719430 -1.005560741278604
-4.549830973340547 2.527205443696192 -1.011669293486441
-3.901579562061892 2.166242977437171 -1.030275828894902
nan nan nan
nan nan nan
-23.247132535135403 13.056354696656442 6.155560651065522
-22.885557922681595 12.842776141632614 5.101087682396549
-31.486150376219303 17.654754459829515 5.717366828290358
-33.242416391286135 18.631893754181473 4.679051570697232
-23.415598647726615 13.113365320756113 2.347975709621911
-27.022558993424742 15.120971576789859 1.622833331181202
-25.396697689935092 14.205370978874766 0.507934836950699
-23.702726136307547 13.317673406967675 -0.474565835842613
-16.353414081744081 9.180861391624227 -0.982869258242485
-10.290491933664139 5.772393351736524 -1.032272617103263
-6.991704133798086 3.920352861911278 -0.984216817339971
-5.542260730721405 3.105085950807447 -1.006186479138765
-4.551704035553855 2.548033264331509 -1.013959001430959
-3.879069186955882 2.170604750446970 -1.026226709916712
nan nan nan
nan nan nan
-23.779670565612314 13.464850151262699 6.308977270128038
-29.870302501313716 16.899804031477348 6.671064096354760
-31.008183970111872 17.529300596779279 5.641652547210886
-22.410191522040982 12.663590930874685 3.160559551869095
-23.341922717152830 13.179347748934431 2.345186725853986
-27.028756208584763 15.248572467810467 1.626392176205723
-25.308636937851915 14.272325600687140 0.507166931067459
-23.729171454493493 13.441725773593120 -0.476031837983345
-16.314314647826524 9.233954323476770 -0.982450570592542
-10.334447398131491 5.844568186515911 -1.038722142066590
-6.986617340187770 3.949619095038544 -0.985435510774023
-5.545147864824995 3.132185305799162 -1.008689430579409
-4.556459937613221 2.571625855354337 -1.017011945356984
-3.893533216198818 2.196579929348644 -1.032075437329653
nan nan nan
nan nan nan
-23.748429313140768 13.551358871145066 6.312576486997540
-23.380896335658708 13.330819972879340 5.231601035234105
-30.735335888766034 17.509803691260981 5.602543930950828
-29.899424094201926 17.026676519331627 4.224722658482843
-28.513925324136373 16.224505058783386 2.870212920165879
-26.355580012642420 14.990311803303296 1.589024303448261
-26.363411383365488 14.982588873731496 0.529296582429934
-23.647996912267669 13.499521808308916 -0.475298836912979
-16.151753005242973 9.212797260760958 -0.974495505243614
-10.340974239677918 5.893604450028792 -1.041336814349020
-6.978656001910759 3.975713721318420 -0.986166726834453
-5.546747770084495 3.157396995165109 -1.010879513089972
-4.553026661197956 2.589633362930016 -1.018156799329243
-3.899780355172611 2.217184519172739 -1.035674654199154
nan nan nan
nan nan nan
-23.684089690442612 13.624456621059803 6.308077465910663
-29.672876833854680 17.055770322790337 6.652746432798611
-30.681229554195379 17.628241338190787 5.604421144531311
-30.058445924741967 17.256460756660456 4.255677471707750
-29.991790196324427 17.204277102743283 3.025001519285719
-27.836473226243143 15.961460005713526 1.681658945998271
-27.018869758319873 15.480115623002662 0.543537746082758
-23.564333906902302 13.561040475990975 -0.474565835842613
-16.107376017680959 9.262152008618592 -0.973762801856213
-10.325521347622033 5.932643016701800 -1.041859748805506
-6.995720637962973 4.017845129258606 -0.990554023197039
-5.552825667953990 3.186571585073141 -1.014008202390777
-4.560990747379297 2.615276396870960 -1.021972979236774
-3.886945044502091 2.227876595152426 -1.034324947873091
nan nan nan
nan nan nan
nan nan nan
-30.279378851593606 17.552341991871835 6.803103921155329
-22.901812988498190 13.265038270644997 4.191817925218026
-29.964073261295496 17.348610936807880 4.251290175345164
-28.728217397401703 16.619687705028554 2.903680725380980
-26.584788726545259 15.373491155074126 1.609435326383009
-30.668959339478867 17.721008790085996 0.618268950447206
-23.555980267061656 13.671407576440851 -0.475403551351603
-16.125153043636921 9.351184733900460 -0.976902959230790
-10.326118376934886 5.983433845479894 -1.044125798116945
-6.987818521829140 4.047438522309931 -0.991528977944280
-5.549657457711892 3.211849701302830 -1.015572547041179
-4.564970984405030 2.639838208751517 -1.025025923162799
-3.907434877528384 2.258687307682689 -1.041973283720783
nan nan nan
nan nan nan
nan nan nan
-23.346131416899681 13.642377703665197 5.256024586642303
-30.547477228676389 17.843353065666051 5.603169668810989
-30.095350487854244 17.565170650103529 4.278588908267918
-28.577089617028843 16.665666092702033 2.894267905164232
-26.544767095300177 15.474242652953446 1.610272701682896
-30.739965632853366 17.905455195715692 0.620956621038547
-23.520196635008062 13.760618639436627 -0.475647885041725
-16.552787479226989 9.676543929617962 -1.004850359864522
-10.327534527105017 6.032506170165856 -1.046391847428384
-6.995933254309211 4.084818064964007 -0.994697580872814
-5.536705972792083 3.230206612099331 -1.015259678111098
-4.581169939382281 2.670587955129157 -1.030750193024095
-3.891108114559360 2.267407355615698 -1.039723773177344
nan nan nan
nan nan nan
nan nan nan
-29.609377712018155 17.434296188441621 6.679078074160574
-30.486162327743074 17.936227520140047 5.602231062020747
-28.827177532887724 16.953408325290720 4.106265656693039
-28.490747491725347 16.742170019453059 2.891130298425317
-27.354373615935955 16.067974375458054 1.662608657925839
-30.621783993962268 17.972878855402488 0.619769857400812
-23.505443003819771 13.856818184651058 -0.476276171673467
-16.594606446531291 9.774970226789616 -1.009351252101415
-10.326360821926444 6.077837102285061 -1.048309273768832
-7.002880331987796 4.120074333414654 -0.997622445114537
-5.536181277477442 3.254555792495841 -1.017136891691581
-4.585831268271766 2.693719854211469 -1.033803136950120
-3.881887255504170 2.279311553181853 -1.039273871068656
nan nan nan
nan nan nan
nan nan nan
-29.838725057008414 17.709895315325856 6.744716368570105
-30.195965301831379 17.914798763646580 5.560932363250127
-28.626093229410973 16.969911183470021 4.086035345687784
-23.162605745314167 13.720162102128164 2.355296792012714
-27.748390435197106 16.429969011905726 1.690032698997142
-27.588338133612449 16.322197515978289 0.559524150379309
-23.554918389001124 13.997010308051246 -0.478265746007317
-16.548362898618880 9.825698855491360 -1.008618548714014
-10.329071516712048 6.128078231232676 -1.050749634565767
-6.996993007474001 4.149556751425732 -0.998841138548589
-5.545179968280090 3.285945226944103 -1.020891318852547
-4.588225817067842 2.716712818716506 -1.036474462885391
-3.880615388249387 2.296818281614098 -1.041073479503407
nan nan nan
nan nan nan
nan nan nan
-29.978657141710475 17.927646351309640 6.789747291478971
-23.207476159271163 13.867391955901008 4.281924177081200
-28.665098292536140 17.121750060674632 4.099684712149161
-30.641291015382397 18.287627197333073 3.121918705221116
-27.661165165712802 16.502453313267292 1.688043932659910
-29.729227197126054 17.722176225921427 0.604132501233006
-23.182392173402750 13.879871420423244 -0.471633831561150
-16.580819080835887 9.919485459667010 -1.012596081388477
-10.305273014409160 6.160252414741707 -1.050401011594776
-7.007050800034635 4.186992124094965 -1.002253480163933
-5.546125331499726 3.311404272130170 -1.023081401363110
-4.594365696931259 2.740965717223831 -1.039909024802169
-3.886367250932318 2.317659282192647 -1.044672696372909
-3.297537210637873 1.964946729386577 -1.028546885237418
nan nan nan
nan nan nan
-29.720850156432803 17.914616236008154 6.745479604551613
-22.747033606017375 13.705648632497969 4.206209896001728
-30.450377331640741 18.332618254294097 4.364141187338332
-30.580683153419059 18.396527949629398 3.122267328192106
-27.699243387827210 16.656546931958243 1.693905559759120
-29.464923463983467 17.704312152168793 0.600013733313807
-23.008818353658786 13.885284314666691 -0.469085780221306
-16.655556101678609 10.043309438427302 -1.019295083787574
-10.290533161669254 6.200299968678013 -1.051098257536758
-7.005996657705031 4.219619222681647 -1.004203389658415
-5.534532584597378 3.330743688159562 -1.023081401363110
-4.586452435008841 2.757998085553898 -1.040290642792922
-3.879923654316477 2.332215082452421 -1.045122598481597
-3.307219113805454 1.986392192474040 -1.033723266139468
nan nan nan
nan nan nan
-29.602765499762413 17.984613257941675 6.732886210856760
-29.202546218755572 17.727514368232821 5.410755276811505
-30.532147829470890 18.527362119402280 4.385102714404017
-29.340743134336030 17.790389819676257 3.001992403200338
-27.798070529984141 16.848375056180906 1.703535375707822
-29.382418755700044 17.794625313557173 0.599594875559312
-22.996087485539700 13.987338226773172 -0.469818781291672
-16.645998288824298 10.116946737455113 -1.020865162474862
-10.342054509629795 6.280653150830259 -1.058593651413056
-6.999709251026365 4.249199552377591 -1.005422083092467
-5.526250304771355 3.352091475798030 -1.023707139223271
-4.571760455319906 2.770938174833464 -1.039145788820663
-3.873425773058458 2.346754125726823 -1.045572500590285
-3.296959939380130 1.995923513944584 -1.032687989959058
nan nan nan
nan nan nan
-29.375724999355882 17.987365730447355 6.695487647762958
-29.915590333334755 18.303581748472300 5.554674984648518
-30.253911540738017 18.503324294079285 4.354391639865920
-29.319265814302742 17.917634405681603 3.006175878852225
-27.754428958983553 16.954676460360140 1.704477422920194
-29.634183767342403 18.088783027096973 0.606017361128233
-22.960761169302028 14.075885420749104 -0.470098019794669
-16.661675903613389 10.206288511886621 -1.024005319849439
-10.328564611817288 6.321916049013315 -1.059465208840533
-7.005153649445992 4.286039521686113 -1.008346947334190
-5.507774192429570 3.367239798615115 -1.022455663502949
-4.575463264749223 2.795067389955309 -1.042198732746688
-3.870199988594485 2.363307415667427 -1.046922206916348
-3.298218325747668 2.012451019522651 -1.035276180410083
nan nan nan
nan nan nan
-29.242779151001400 18.053658608609116 6.680222928132833
-29.952675485620155 18.484708891809714 5.574698596173667
-29.155193752565214 17.978508611415350 4.205711040911639
-29.307677228172391 18.058419926949089 3.011753846388075
-27.661490261508675 17.037433975520596 1.702593328495449
-26.311527989290504 16.193290976260322 0.539279358912061
-22.932830193419282 14.174665551244971 -0.470586687174913
-16.794085093409112 10.372238355298069 -1.034472511098028
-10.288369132388667 6.349266144020651 -1.057722093985580
-6.997844899657078 4.316897031123587 -1.009565640768242
-5.512211423111181 3.397769556960377 -1.025584352803754
-4.561844862625683 2.809759341191542 -1.041435496765182
-3.866490352277175 2.380541608889587 -1.048271913242411
-3.290820170539112 2.024526076751899 -1.035276180410083
nan nan nan
nan nan nan
-29.326271665835360 18.246895747587473 6.713805311319105
-29.918162585119546 18.607929653170014 5.580330236915116
-22.412251782375137 13.928698684581434 3.240018363769251
-31.089379376918654 19.306293309282225 3.201753365577971
-29.833279525762979 18.519049784311505 1.840236893414391
-29.908429061006061 18.551239210835444 0.614324706592380
-22.888303609813548 14.257801635225652 -0.470691401613536
-16.830688414925241 10.476180876009343 -1.038973403334921
-10.271218926074086 6.388297365686348 -1.058245028442065
-7.004649354082071 4.354923280380672 -1.012734243696776
-5.517096903519272 3.427414073931258 -1.028713042104558
-4.558681234380892 2.829807720515677 -1.042961968728194
-3.871404046879275 2.402243499615279 -1.051871130111913
-3.268956407490366 2.026838844912473 -1.030617437598238
nan nan nan
nan nan nan
nan nan nan
-28.498731258681453 17.856433517430034 5.326593534619860
-28.712461787774000 17.976396301321653 4.159400690417684
-29.352988366895701 18.363160082059146 3.029184994937607
-27.744701674561842 17.350282936018605 1.714944614168783
-29.724646161654018 18.574020382766815 0.611811560065411
-22.856141390902650 14.343189969309909 -0.471005544929407
-16.861847785378075 10.573316615968858 -1.043055607921870
-10.261796549999980 6.429727913190809 -1.059465208840533
-7.008675257745566 4.389718300683152 -1.015415369251689
-5.504026370771191 3.444642622053850 -1.028400173174478
-4.557595042989746 2.850114030102173 -1.044870058681959
-3.870026414453903 2.419200183151364 -1.053670738546664
-3.255663266780027 2.033574192943944 -1.028546885237418
nan nan nan
nan nan nan
nan nan nan
-28.476313360989149 17.981116012946366 5.334102388941792
-28.602529790334255 18.046852304420742 4.152576007186995
-23.543215102627588 14.843175211303876 2.434957140884074
-23.752047741085804 14.969044237453359 1.471373073814123
-29.828842495764000 18.784224624956199 0.615302041352867
-22.834666421492670 14.441055635632916 -0.471598926748275
-16.804576577357963 10.619307687594711 -1.041799544972040
-10.246028684487079 6.469764119822106 -1.060162454782514
-6.998345570756045 4.417335100423986 -1.016146585312120
-5.496981236612005 3.466995667778705 -1.029338779964719
-4.550940376277619 2.868099144844432 -1.045633294663466
-3.850016447190596 2.425423281517858 -1.050521423785850
-3.259989228716791 2.052130257408976 -1.032170351868853
nan nan nan
nan nan nan
-29.928480335950038 19.044521589530177 6.895455474917576
-28.391345583623011 18.052469557185045 5.328783617130425
-23.707536517496354 15.068487218658241 3.449146157052484
-29.153313554145921 18.515533429218593 3.021515289575813
-23.787534706208390 15.096028565560985 1.476501997525931
-29.670138371298567 18.821979195764619 0.613312467019017
-22.815323544306811 14.534964120778881 -0.472192308567143
-16.804651046555261 10.697498590772673 -1.043997655134244
-10.256458948676297 6.524022999045560 -1.063474373006925
-6.983658680407711 4.440518162638744 -1.016146585312120
-5.505461775501304 3.497917246574710 -1.033093207125685
-4.549691628453612 2.888436105142943 -1.047541384617231
-3.855115290738897 2.446530557760419 -1.054120640655351
-3.266218015265122 2.071206035549545 -1.036311456590493
nan nan nan
nan nan nan
-29.840335702311155 19.135098524214651 6.890494441037786
-29.003511799643348 18.591342871272328 5.456434140603253
-22.170413598529006 14.200388990241747 3.232706203164942
-28.632056459336820 18.325049327058025 2.974102565521088
-29.344557827528913 18.773844759877925 1.825687497578852
-29.531808686302785 18.879118049596009 0.611811560065411
-22.789689530943058 14.630720651399976 -0.472715880760261
-16.763845245113259 10.753935770640789 -1.043788311309272
-10.220204427124267 6.551183388816355 -1.062079881122962
-6.991515597889232 4.479862189732413 -1.019558926927464
-5.496545431234557 3.519243876907633 -1.033718944985846
-4.541235150308028 2.905357928072184 -1.047923002607984
-3.846551818703450 2.459972516304509 -1.054120640655351
-3.262223970613553 2.084675159722463 -1.037346732770903
nan nan nan
-27.050870689628944 17.486601691554380 7.436431954499489
-29.483171959577870 19.044334968480985 6.822566438683736
-28.940041712629313 18.686348234475116 5.456121271673172
-29.175670484257346 18.824064837819591 4.263233370998869
-28.350090695288287 18.277390541913412 2.951093449435705
-23.185560659547111 14.936347545517791 1.445414439517623
-23.512353775141520 15.141064545640440 0.488143808050820
-22.779667998433077 14.731189019560015 -0.473518691456376
nan nan nan
-10.221856834821301 6.600169354112050 -1.064520241919897
-6.991632058224551 4.512710808113606 -1.021752575108756
-5.486505038151892 3.538522385706166 -1.034031813915926
-4.534876159083048 2.922528253887926 -1.048686238589490
-3.851478946960967 2.481157516989610 -1.057719857524853
-3.250419808731931 2.092344673460773 -1.035793818500288
nan nan nan
-25.787875804556549 16.798080620140770 7.105304002505321
-29.645226223065610 19.296001836981645 6.875611339398415
-30.406207344624502 19.783768119910636 5.745525031997600
-29.179683918571069 18.971237523897127 4.273470395844901
-22.475183640617178 14.601132510589787 2.344838102882995
-29.358444777967147 19.058312821479891 1.834375266315181
-23.407356913561674 15.189301404745413 0.487061758851708
-22.734809262409158 14.814982133184369 -0.473658310707875
-16.783985620606479 10.928824167954849 -1.049649938408481
-10.193745637015454 6.632550310215447 -1.063997307463411
-6.990813912073715 4.546829552398753 -1.023946223290049
-5.477432493579559 3.559805195348690 -1.034657551776087
-4.531233098299769 2.942617180583749 -1.050212710552503
-3.842794626435137 2.494586571365853 -1.057719857524853
-3.256062262656000 2.112088515467780 -1.039934923221928
nan nan nan
nan nan nan
-29.736930489274592 19.503807814792520 6.912628284501466
-30.171913565349080 19.774044632668463 5.713612401129392
-22.444776256784703 14.704240249605739 3.294615829614757
-22.247380439620375 14.563824074570459 2.326361085420492
-30.911164670347496 20.227699361170941 1.936011693338978
-23.191849133895285 15.164761365923329 0.483675992002875
-23.094158538495773 15.164257491231901 -0.482244894675018
-16.695637718731135 10.954474631084894 -1.046509781033905
-10.182195065785342 6.675739610398974 -1.065217487861878
-6.964938153731915 4.564675608571298 -1.022483791169187
-5.478193460518620 3.587561079577356 -1.037160503216731
-4.527504966421079 2.962716231938872 -1.051739182515515
-3.843848417121224 2.514385872858816 -1.060419270176980
-3.238967511832865 2.117099640006305 -1.036829094680698
nan nan nan
nan nan nan
-27.072618901570394 17.891807791356175 6.307763769157818
-21.620948970856329 14.283475904458321 4.104214624795497
-29.656187067478498 19.576939317612894 4.363166232591090
-28.852336297155365 19.031836443717918 3.023955650372748
-22.792747667771980 15.023340974022432 1.430655699857112
-23.135433294347237 15.243423216035699 0.483606182377126
-23.221197410247289 15.363947560078779 -0.486014614465471
-16.713943892399797 11.050137168482536 -1.050068626058425
-10.185428500975332 6.728813002905955 -1.068006471629803
-6.967183384119269 4.600992999947996 -1.025164916724101
-5.473880956951652 3.612101598729674 -1.038724847867133
-4.533525760835996 2.989309460844823 -1.055555362423046
-3.839929420688491 2.531005469110375 -1.061768976503043
-3.247691310307876 2.139018873644241 -1.042005475582748
nan nan nan
nan nan nan
-26.813908184849936 17.855620640418081 6.261969610267447
-21.596488353341648 14.370415291739837 4.108594789816624
-29.838903340186057 19.847448090239173 4.400214512986255
-27.076636694855136 17.996487035663673 2.844414820312572
-23.320817141514127 15.488447582455445 1.467186197314687
-23.107072492729568 15.340678576793156 0.484129754570245
-22.684909704311920 15.123234518560027 -0.475892218731847
-16.696878591393645 11.122807271694246 -1.051429360920741
-10.208317645175173 6.795238327374682 -1.072887193223672
-6.959343766029063 4.630783414394494 -1.026383610158152
-5.471108729711557 3.637749389029565 -1.040602061447616
-4.527969212534911 3.008375552188604 -1.056700216395305
-3.842434515388538 2.551940835498057 -1.064918291263857
-3.249862793914626 2.156751766597560 -1.045111304123979
nan nan nan
nan nan nan
-25.975399372416096 17.428433632141036 6.080319446668977
-27.390509733128830 18.364052854498745 5.223033918763228
-21.832792290412083 14.632341064115504 3.227100213368305
-22.697891058852420 15.200651244048128 2.389984777626282
-22.811801757725497 15.265405228351755 1.438506093293554
-23.226241573215038 15.536875384272136 0.487759855109200
-22.281728654927129 14.967056033647404 -0.468527303215313
-16.696092675284842 11.206623637199767 -1.053836814907917
-10.181226290745842 6.828611003121062 -1.072538570252682
-6.959625011912554 4.666102340244917 -1.028820997026255
-5.474788519360692 3.667819623184666 -1.043730750748420
-4.515809002330059 3.023070636478653 -1.056318598404552
-3.841600979896267 2.570756852377490 -1.067167801807295
-3.229467316419186 2.159492045860906 -1.040970199402338
nan nan nan
nan nan nan
-28.201208826343226 19.064954200825106 6.616874341667820
-21.642958545370526 14.620354170605593 4.136752993523865
-29.571295482446384 19.968626509578787 4.381202895415052
-28.876070704660908 19.484489239330802 3.047662012400111
-22.783216537755976 15.361688735702710 1.440076171980842
nan nan nan
-22.128328222869882 14.976372687145368 -0.466398109629965
-16.680034659461882 11.280499855062363 -1.055302221682719
-10.190343818127596 6.886419933333585 -1.076024799962588
-6.966324045154980 4.705924312235842 -1.032233338641599
-5.453765706292297 3.681381914834541 -1.042166406098018
-4.519877509392471 3.048695875169753 -1.059753160321330
-3.837451266366297 2.587419199332838 -1.068517508133359
-3.234726751570068 2.179387346175350 -1.045111304123979
nan nan nan
-25.238809778007361 17.203842192512596 7.051765651571480
nan nan nan
-21.506875082441052 14.638016852249121 4.120483809159681
-21.951676381280670 14.935152221126110 3.260004936087695
-28.791404510984506 19.573965064708744 3.045918897545158
-22.646850929666424 15.385006524228110 1.434842576356548
-22.452179408104758 15.247031104260332 0.473728120333624
-22.089133245838724 15.062536463037091 -0.466677348132961
-16.680169259778697 11.365646759915714 -1.057814347582381
-10.154715423021624 6.914099630986699 -1.074804619564121
-6.964624329804909 4.740265050988397 -1.034426986822892
-5.442515467097611 3.701507578209204 -1.042479275028098
-4.525445733672879 3.075489744757260 -1.063569340228861
-3.821948283784677 2.596418348136130 -1.066717899698608
-3.233493024227643 2.195005471911226 -1.047181856484799
nan nan nan
nan nan nan
nan nan nan
-22.375057064430703 15.349218803710565 4.297567623585222
-22.590937538126482 15.491514483386387 3.363350139295260
-22.552852982642417 15.453826781414882 2.391902203966731
nan nan nan
-29.145352249906505 19.948768377576375 0.616488804990603
-22.345250174802072 15.357464960330821 -0.473274357766254
-16.728951400356713 11.488893990651544 -1.063571302769104
-10.126020238348165 6.949017372546168 -1.074455996593130
-6.945566662704938 4.764636895210010 -1.034183248136082
-5.446834786614015 3.733716167290477 -1.045920833258984
-4.533579672513626 3.105369154830877 -1.068148756117898
-3.809190399956556 2.608207101482467 -1.065818095481232
-3.247747496888641 2.222114336348341 -1.054428789747669
nan nan nan
-25.318553539602881 17.524860789171036 7.108903219374822
-27.735063820695785 19.183191631244796 6.555052227165820
-26.003760906840636 17.979012429634885 5.007154357007710
-22.272143709282773 15.387482431009280 3.323864472031993
