# This PCD file was generated using the MATLABÂ® pcwrite function
# from Computer Vision ToolboxÂ®.
# .PCD v.7 - Point Cloud Data file format
VERSION .7
FIELDS x y z
SIZE 8 8 8
TYPE F F F
COUNT 1 1 1
WIDTH 955
HEIGHT 1
VIEWPOINT 0 0 0 1 0 0 0
POINTS 955
DATA ascii
-29.643677617825094 17.748402782865067 0.603085356846769
-23.083726042763537 13.881071075202327 -0.470167829420418
-16.647343748485433 10.002733269879544 -1.017829677012771
-10.300259870646096 6.184127994322308 -1.051098257536758
-7.000701534923943 4.201458478327508 -1.002497218850743
-5.539757674442202 3.322045959140783 -1.023081401363110
-4.584042742006758 2.746753927248528 -1.038764170829910
-3.876895116699416 2.322112269583867 -1.043322990046846
-3.313650558176912 1.983178947394784 -1.034758542319878
nan nan nan
nan nan nan
-29.681363384550796 17.968592944534510 6.744334750579354
-30.221003965218436 18.288075315705964 5.594722207698817
-30.406631662274613 18.385909231445247 4.362922493904280
-29.344777824135896 17.729854990862609 2.999552042403404
-27.753911577775366 16.755445979054180 1.699034483470928
-29.362395622088563 17.719519755676298 0.598617540798825
-22.994088877982296 13.936687910534083 -0.469330113911428
-16.631118496415560 10.072163379390727 -1.018981068050116
-10.324634111830289 6.247895882663953 -1.055804667645131
-6.994485633319333 4.231007101473094 -1.003715912284795
-5.533199496812984 3.344428553784661 -1.024020008153351
-4.574426853966249 2.762738488368469 -1.038764170829910
-3.877107265656595 2.340666870061228 -1.045572500590285
-3.280240888165447 1.978767811960710 -1.026476332876597
nan nan nan
nan nan nan
-30.298882288060028 18.487259037705115 6.899271654825108
-29.084126887304262 17.732131161867191 5.395111830307482
-30.298195047105281 18.465076374484219 4.356585288047212
-29.286113685636987 17.834251910013840 2.999900665374394
-27.731085550544005 16.874025537813136 1.701232593633132
-29.541259191119387 17.968429812714334 0.603539119414138
-22.977723749188588 14.036674021964581 -0.469993305356045
-16.677687342010675 10.180103831840661 -1.024005319849439
-10.329977468872404 6.300496883086010 -1.058593651413056
-7.008487662716318 4.272963839112606 -1.007859469960570
-5.514743625055868 3.359611775037474 -1.022768532433030
-4.556370299197858 2.773585254528475 -1.036856080876144
-3.885560839999191 2.364316129037610 -1.050071521677162
-3.286519216776622 1.998235004967240 -1.030617437598238
nan nan nan
nan nan nan
-29.264210157335981 17.996422304835441 6.677933220188315
-29.962863007624474 18.411657025459174 5.570005562222461
-30.309672020378390 18.617478405756657 4.367553528953676
-29.356131102968540 18.017662965265558 3.013496961243029
-27.706066840649680 16.991605475956725 1.703326031882850
-29.454489955600771 18.056806683567146 0.603050452033895
-22.950723396334855 14.130425016297638 -0.470447067923414
-16.722003151150609 10.287444977428150 -1.028924899736276
-10.309619032780875 6.337560240318192 -1.058767962898551
-7.013825149055487 4.309873293753309 -1.010784334202293
-5.501299409601105 3.377807753868369 -1.022455663502949
-4.576782340361481 2.807953188001713 -1.043725204709700
-3.860671978596711 2.367676924685363 -1.045572500590285
-3.274582529397150 2.006666754843827 -1.029064523327623
nan nan nan
nan nan nan
-29.706839664466422 18.411843702082837 6.793563471386501
-29.975664325416730 18.563977387491445 5.584397533006162
-28.867218457430067 17.870545188104703 4.168662760516475
-31.204359800753640 19.302312840078343 3.210120316881746
-27.658478740396490 17.095564851556812 1.704058735270251
-29.392981670595297 18.160563112536071 0.603085356846769
-22.916551611708517 14.219941002335148 -0.470761211239285
-16.828577685306406 10.434160235067859 -1.037717340385090
-10.278965591577423 6.368262366019383 -1.057896405471075
-7.003801141897481 4.337465372349643 -1.011515550262724
-5.507952569902710 3.408424471532401 -1.025897221733834
-4.571962325971064 2.827009559653313 -1.044870058681959
-3.863987288685398 2.388310864792178 -1.048721815351099
-3.267558005372110 2.018084955683762 -1.029064523327623
nan nan nan
nan nan nan
-29.920463670673374 18.689120395972857 6.857293675842268
-28.471201512002196 17.770059725892466 5.315643122067046
-29.154973792425629 18.189760441404047 4.219360407373016
-29.233011213128854 18.224274751210164 3.013845584214019
-27.703740946744087 17.257480052082087 1.710548393844376
-29.818290493225465 18.567472577723901 0.613137942954644
-22.876947946259122 14.306209676930465 -0.470970640116533
-16.841172524452460 10.523532560747775 -1.040752825847181
-10.287093773145962 6.423097736095499 -1.061034012209990
-6.993669905638167 4.365039946557116 -1.012246766323155
-5.509430410204953 3.435992671546840 -1.028400173174478
-4.558733959226819 2.840874800441326 -1.044106822700453
-3.868859512305137 2.410027078518461 -1.052321032220600
-3.278534628119075 2.040708075967790 -1.034758542319878
nan nan nan
nan nan nan
nan nan nan
-28.472538816237257 17.909301232602711 5.327532141410102
-28.647647517251880 18.012467666106019 4.155013394055098
-29.304183099027497 18.411000449956255 3.027790503053645
-29.456830115021504 18.499734550421298 1.822966027854219
-29.719420249353629 18.650186097636851 0.612439846697153
-22.842096389592630 14.395573596820118 -0.471284783432404
-16.824616742147168 10.595026614196366 -1.042008888797012
-10.252806087912314 6.451539503526982 -1.059813831811523
-7.001915017435222 4.404222821914972 -1.015659107938499
-5.515800142450756 3.466766134291527 -1.031841731405363
-4.555439959530046 2.860947008982887 -1.045633294663466
-3.865374754169951 2.426625637496671 -1.053670738546664
-3.256662628676922 2.042900615799170 -1.030099799508033
nan nan nan
nan nan nan
-29.935148553486449 18.990094897598734 6.890876059028539
-28.418384346747544 18.020943153353002 5.329722223920665
-28.668438292057321 18.165481642872042 4.167200328395613
-29.219538018591628 18.500389211099808 3.025698765227701
-27.495158373452313 17.401874136360910 1.705314798220082
-29.809625219620141 18.852145607378681 0.615651089481613
-22.817027666430722 14.491300885182698 -0.471808355625522
-16.809453137068285 10.667603341947535 -1.043369623659328
-10.250414779499103 6.500093030826505 -1.061905569637467
-6.983145501605308 4.426511658620790 -1.015171630564879
-5.493652533752763 3.479656725944907 -1.029964517824880
-4.548743466437597 2.878930908722098 -1.046396530644972
-3.866761693170062 2.446354862216200 -1.056370151198790
-3.246245893109285 2.052191464824760 -1.029064523327623
nan nan nan
nan nan nan
-27.135769442308440 17.340705299794859 6.259679902322929
-28.396592710056520 18.132458441101864 5.336292471452356
-29.404522300195687 18.768841498996768 4.283219943317313
-31.163713148150677 19.876422309624953 3.233826678909109
-29.384116078519789 18.734169580539511 1.826315529053768
-29.578292749856068 18.843450676391193 0.612160608194157
-22.807589907768918 14.591671641196761 -0.472611166321638
-16.777351232465534 10.725438385497890 -1.043578967484300
-10.237198609206416 6.539411702427813 -1.062777127064944
-6.991851552551780 4.464601052579817 -1.018583972180223
-5.493740291157419 3.505292925608356 -1.032154600335443
-4.539171576973610 2.893999256297258 -1.046396530644972
-3.850411187414909 2.453927334452768 -1.054120640655351
-3.258976591560578 2.075397505524112 -1.035276180410083
nan nan nan
-25.925352013117706 16.707749251006433 7.120600674200703
-29.745772377528379 19.155149834647929 6.877137811361428
-28.962782566792242 18.643783695088871 5.455495533813012
-29.243663890573171 18.810156687387686 4.269326838169127
-28.479498410800158 18.304577846758477 2.961900761536415
-29.305099898494309 18.827988459987864 1.825478153753881
-29.603205953507359 19.004920453328534 0.614045468089383
-22.798533718701982 14.698284708801715 -0.473483786643502
-16.796896867123564 10.820712639971031 -1.047137812508820
-10.217660035725116 6.577263187219769 -1.063125750035934
-6.987910058141499 4.496499198648501 -1.020290142987895
-5.484794176379424 3.526584979238545 -1.032780338195604
-4.547211003448511 2.921499554500999 -1.050594328543256
-3.838542520351246 2.465246679167909 -1.053220836437976
-3.253338103643880 2.087804193150171 -1.035793818500288
nan nan nan
nan nan nan
-29.566738222928649 19.186194326924333 6.851187787990217
-28.892511100017419 18.734351681316593 5.453931189162609
-22.353119860192166 14.488568095476941 3.270729438307348
-28.295025638962908 18.325895795140280 2.949350334580753
-29.353205470007172 19.003977928550050 1.832595843802921
-29.456094817478792 19.056002336308531 0.612370037071404
-22.762180293927685 14.787581539531622 -0.473797929959373
-16.740595644292480 10.867316406564825 -1.045986421471475
-10.213025642399728 6.624816243499870 -1.065043176376383
-6.988827702859253 4.531664124736264 -1.022727529855997
-5.479081946367992 3.550005525741344 -1.034031813915926
-4.533689333678552 2.935220554367241 -1.049831092561750
-3.843001947063596 2.487101005144865 -1.056820053307478
-3.255763711380476 2.105442038868569 -1.038899647041518
nan nan nan
nan nan nan
-29.727984507151085 19.438630716251691 6.904232688704897
-30.341556787945141 19.832276402377261 5.741144866976473
-21.650904227037170 14.140985450944049 3.175183873077712
-22.331096375784497 14.574125703099822 2.332984921869314
-23.157696001258415 15.107833497540842 1.449077956454629
-30.682638200980822 20.001760206873548 0.639316552610570
-22.713769491724015 14.869136788738212 -0.473867739585122
-16.710916771272348 10.931152452592030 -1.046509781033905
-10.184835302931857 6.657155737001782 -1.064520241919897
-6.961333974878766 4.548431452112443 -1.021021359048325
-5.479889186117202 3.577748759776595 -1.036534765356570
-4.531637284019614 2.956391756524317 -1.051739182515515
-3.842458483115620 2.505822911631516 -1.059069563850916
-3.241920382350799 2.112575125982992 -1.036829094680698
nan nan nan
nan nan nan
-26.845107217597789 17.687644981245356 6.248994598581842
-29.998440938793802 19.750292706250779 5.688582886722955
-30.476113770019271 20.057157834028800 4.479673324886411
-22.889360288452178 15.052661465440906 2.396782925560600
-22.942931462547655 15.082155926114396 1.438924780943498
-23.201821292975996 15.240747925580937 0.484548612324739
-23.252642381144387 15.338116197052468 -0.486224043342719
-16.680996116529350 10.994913649630259 -1.047033140596334
-10.181502436182670 6.705817700077224 -1.066611979745841
-6.963652713423559 4.584710907990369 -1.023702484603239
-5.475618511119078 3.602283742085405 -1.038099110006972
-4.527852047081704 2.976505887921935 -1.053265654478527
-3.858116888065088 2.535273134274042 -1.065818095481232
-3.242600572722486 2.129180413480550 -1.039417285131723
nan nan nan
nan nan nan
nan nan nan
-28.997560388365461 19.244055383425390 5.512124810157576
-24.241682387186341 16.075659784846220 3.571502977831252
-22.805121108760233 15.111558217199823 2.393471007336188
-23.231490867638051 15.388253018239491 1.460382523003105
-23.103456825095559 15.291844486238800 0.483606182377126
-23.163987393490054 15.395944611556228 -0.485491042272353
-16.677453879327789 11.076278702042762 -1.049231250758538
-10.201194828601093 6.769961183957997 -1.071144078368719
-6.964148581469900 4.619964447848874 -1.026139871471342
-5.464657311979835 3.622466704419153 -1.038411978937053
-4.532165282098008 3.002050384056802 -1.056700216395305
-3.839494594248008 2.542269837558560 -1.063118682829106
-3.243204239948703 2.145816126054216 -1.042005475582748
nan nan nan
nan nan nan
-25.989917838226180 17.385598674116277 6.078029738724458
-22.269237002887035 14.885451092208930 4.242502691891061
-23.518600427153618 15.714626399183732 3.473032548359893
-27.015687617091515 18.037668024087512 2.841974459515638
-22.866982240954872 15.261916425420319 1.440808875368244
-23.028310059634400 15.357973679381439 0.483152419809757
-22.389004005942073 14.993791304817746 -0.470342353484791
-16.688485401453260 11.167749702819512 -1.052371408133115
-10.192407127617029 6.815496168163735 -1.072712881738177
-6.964482982231280 4.655277179055806 -1.028577258339445
-5.461835194096440 3.648102891704224 -1.040289192517535
-4.536355174209714 3.027661141084642 -1.060134778312083
-3.833839172218191 2.557819747517141 -1.064018487046481
-3.237301584140475 2.158195545074456 -1.042523113672954
nan nan nan
nan nan nan
-28.273384878737154 19.056282865379202 6.627559645408907
-22.377707771377029 15.071234907439125 4.273163847038946
-21.815271998130090 14.686904335211047 3.229050122862788
-28.903248027356106 19.444151658720138 3.047662012400111
-22.831799864094780 15.353904049329900 1.441960266405588
-29.026088196258357 19.504721815552500 0.610415367550428
-22.207234566747896 14.984608791709755 -0.467619778080574
-16.665960985315898 11.237100991140577 -1.053418127257973
-10.178468603435565 6.857712376170099 -1.073758750651149
-6.959716036992750 4.687321702214474 -1.030283429147117
-5.462178201944077 3.675969237453720 -1.042792143958179
-4.512725884186831 3.034713016019998 -1.057081834386058
-3.828121935083383 2.573361125661364 -1.064918291263857
-3.244181190782331 2.179177496401610 -1.047181856484799
nan nan nan
nan nan nan
nan nan nan
-29.641300281613120 20.113970264105756 5.673565178079094
-21.753304529832132 14.750253090888409 3.227100213368305
-22.244194357682094 15.071778486096983 2.350764693389836
-22.987465891038593 15.569536349004476 1.455044255466324
-23.251139668394941 15.736287421607617 0.490063572758921
-22.091265341933674 15.013208423269901 -0.466223585565592
-16.671565215121564 11.321478809309054 -1.056139596982606
-10.188644604903876 6.913802453588763 -1.077244980361055
-6.958919290493231 4.720404367550788 -1.032477077328409
-5.459769121639870 3.700712238449184 -1.044669357538662
-4.520518111003405 3.061771635865193 -1.061279632284342
-3.832476708987966 2.594781803905147 -1.068517508133359
-3.240137075564293 2.192088632866106 -1.048217132665209
nan nan nan
nan nan nan
nan nan nan
-21.789262374105061 14.897086428666318 4.180554643735130
-28.971092512588942 19.792390816452066 4.308081289371963
-28.691242494587296 19.586517649862714 3.039295061096336
nan nan nan
-22.979637570409189 15.669769608405602 0.485491042272353
-22.276321372050479 15.252915579686007 -0.471249878619529
-16.709417192530115 11.432611534953862 -1.061059176869443
-10.106883209003637 6.909968318518978 -1.071144078368719
-6.958788653534590 4.755867589329531 -1.034914464196512
-5.450080506897416 3.721975904257302 -1.045295095398823
-4.521154528727076 3.085278931616105 -1.063950958219614
-3.829835285042161 2.612536499156969 -1.070317116568110
-3.235658076788359 2.205561650157602 -1.049252408845619
nan nan nan
-25.519154444162698 17.597912698271490 7.156592842895721
-27.902681140419425 19.227215579005811 6.586726520398328
-21.574450381681725 14.860997404653887 4.149267750727084
-22.485376653009510 15.476894988205563 3.351650682328366
-22.571811045668721 15.524779474323253 2.396782925560600
nan nan nan
-28.817111285999065 19.798047495684610 0.610275748298930
-22.473138389990051 15.503179733376859 -0.476555410176464
-16.723673739412259 11.528276019657230 -1.064513349981477
-10.115517296020794 6.967810239584818 -1.074630308078625
-6.951955090687870 4.786884095718065 -1.036376896317374
-5.448446797853021 3.748815585358302 -1.047485177909386
-4.536241754773727 3.118838419736192 -1.070056846071663
-3.809450443717709 2.618162752703646 -1.067167801807295
-3.242271759709337 2.226685680693024 -1.053911151657464
nan nan nan
-25.070273872261460 17.417805821802464 7.047716532593291
-26.285580158977414 18.248550183856313 6.219991631284607
-21.587359007519400 14.981265415082813 4.161782507930302
-22.367596762636577 15.511172061077188 3.342144873542764
-22.040930137488427 15.273248940739517 2.346058283281462
-29.889627541760632 20.704278213799363 1.905552166805585
-28.645884988581223 19.827955251165758 0.608111649900707
-22.326930575520915 15.517620990758816 -0.474600740655488
-16.563578139103608 11.503414109320746 -1.056872300370008
-10.074765048030452 6.991718122006968 -1.072887193223672
-6.936834438267728 4.812253280444242 -1.036620635004184
-5.440198161030434 3.771187549883615 -1.048423784699627
-4.530168989060265 3.138007624015547 -1.071201700043922
-3.797083851553878 2.629225509838279 -1.066267997589920
-3.248777220214851 2.247882637491623 -1.058569894469310
nan nan nan
nan nan nan
-27.476579402203416 19.217875508744967 6.517653664072018
-22.237021344085509 15.541627848246373 4.296941885725062
-21.291382127824129 14.875182658169972 3.189076978225899
-22.405700223896925 15.642063065307362 2.390682023568263
-29.914174516734519 20.868417192906382 1.911518465817280
-23.363772089364513 16.292731682338019 0.497184154585333
-21.514208682058481 15.064411097794132 -0.458439812294563
-16.704969727661478 11.688257767160797 -1.068490882655941
-10.087853965460194 7.053100921367071 -1.076896357390064
-6.939519302977196 4.850084225928912 -1.039545499245908
-5.441576768381641 3.800333875666815 -1.051239605070351
-4.517577728286689 3.152678198097568 -1.070820082053169
-3.810258688892805 2.658073278546595 -1.072566627111548
-3.248834840257709 2.264733030521671 -1.061158084920335
nan nan nan
-24.970361078322256 17.608126013601275 7.054015162114919
-28.491001787720659 20.075857848204823 6.774864189839600
-28.978905513917045 20.412085511468341 5.614120081363805
-28.229281547213908 19.869328114871593 4.238615763631030
-22.421038662402925 15.769464999596286 2.398177417444562
nan nan nan
-28.452766512820979 19.989521294390983 0.606959791075846
-22.026871148919565 15.538248332963290 -0.470516877549163
-16.768545239130621 11.820143538650669 -1.075189885055038
-10.032224017862879 7.066471658996203 -1.073584439165653
-6.943647449627813 4.889135240142550 -1.042714102174442
-5.446049123746834 3.831809048675820 -1.054681163301237
-4.501727188181148 3.165040794305930 -1.069675228080910
-3.807334512986807 2.675839512776800 -1.074366235546299
-3.239328722147601 2.274949509861169 -1.060640446830130
nan nan nan
-25.709443964605747 18.257247485637095 7.279866020676160
nan nan nan
-29.346076515415106 20.816651884541326 5.698594692485529
-21.801811390631688 15.453687446647230 3.281210201840191
-28.826549442931192 20.417889053915104 3.090542637831958
-29.787738206050694 21.083089977067765 1.912565184942139
-28.492430367851359 20.158837174830214 0.609228603912693
-22.029020261157459 15.649423980985413 -0.471668736374024
-16.784629347787600 11.914993194909473 -1.078748730079558
-10.026611236838622 7.112380954546404 -1.075501865506102
-6.933873543289839 4.916727248701837 -1.043689056921683
-5.436536004033635 3.852131828118962 -1.055306901161398
-4.505627353846999 3.190161990695271 -1.073109789997688
-3.806393358326238 2.694079460031114 -1.076615746089738
-3.222303460498980 2.278985945453998 -1.057534618288900
nan nan nan
-24.637549819182325 17.625748314869384 6.993728279550763
-27.532770546372319 19.682468628775947 6.578712542592512
-29.196089262092840 20.863833503664960 5.683576983841668
-21.836587116330989 15.593143545999288 3.294615829614757
-28.884848741934505 20.610969656133019 3.104487556671584
-29.658672142965308 21.147516107341016 1.909006339917619
-28.171117511203018 20.079429758015568 0.603853262730009
-22.031174863414975 15.766956738783080 -0.472890404824634
-16.767304723360116 11.990936893562990 -1.080318808766846
-10.026038681358626 7.164713050140072 -1.078116537788532
-6.939282768821928 4.957055306884611 -1.047101398537027
-5.439134276347217 3.882562095409133 -1.058435590462202
-4.505652371481670 3.213850602931574 -1.075781115932960
-3.798552773260287 2.708481201379750 -1.077065648198426
-3.220622033942833 2.294704032509271 -1.059605170649720
nan nan nan
-24.727593296419911 17.814428121726003 7.036019077767410
-25.102853716205960 18.071468795399376 6.012391444314927
-24.896982528320653 17.910071412392398 4.857603008429249
-21.973322112079810 15.801067201991145 3.323133255971562
-28.887532895563481 20.757798158381611 3.112157262033378
-29.680379375360786 21.319662148063966 1.915181982754286
-27.730734824172309 19.904545674171775 0.595825155768859
-22.033926434907734 15.879679867661601 -0.474077168462369
-16.769587866400123 12.076820051083432 -1.083040278491479
-9.997372986519764 7.194429886687532 -1.077593603332046
-6.937309512608239 4.990472585958930 -1.049295046718320
-5.437457117821252 3.908648522659217 -1.060625672972765
-4.499753664592014 3.232210298438894 -1.076925969905219
-3.776886747331650 2.711969822590307 -1.073466431328924
-3.222412482291222 2.312128700174862 -1.062710999190950
-25.695784104375367 18.662228706866067 8.509452564880677
-26.713993968260372 19.387489967865818 7.620441916952770
-25.176300464157148 18.258106359714827 6.045210591519693
-24.783191757026408 17.966420423446824 4.848216940526835
-23.065859349519574 16.709171184391749 3.497162678354112
-22.849856351710816 16.540537487249644 2.467902011642689
-29.250261313628236 21.158101471762908 1.891944818182419
-27.481216068941745 19.871162062531894 0.591950721539782
-22.002634735856095 15.974118279813384 -0.474600740655488
-16.722479824187825 12.131764767319456 -1.082726262754022
-9.968972627502820 7.226944582905450 -1.077244980361055
-6.932706429827587 5.023976671906864 -1.051244956212802
-5.433379872556761 3.934556490452399 -1.062502886553248
-4.482081656357408 3.243293996166567 -1.075399497942207
-3.787923668513850 2.739984866677662 -1.079315158741864
-3.211190673466114 2.321099549311553 -1.061675723010540
-24.581191936321499 17.984125373626018 8.161082130172684
-24.571160375500053 17.963621493640435 7.027021035593655
-25.248748443689440 18.445475665389367 6.078029738724458
nan nan nan
-26.039660846720164 19.002373767363320 3.958072535112380
-24.141017831621891 17.603932985612417 2.613975036487764
-29.324731727623877 21.368286758973419 1.901574634131121
-27.353496731906382 19.924583131417808 0.590694148276298
-21.970951914332112 16.068531509302474 -0.475124312848606
-16.709055757828775 12.211275611289329 -1.084610357178768
-9.948512180399652 7.265223858782988 -1.077767914817541
-6.942383713984023 5.068043355434267 -1.055388513888577
-5.433975536298492 3.963976024597950 -1.065318706923972
-4.464387175070724 3.254293759810003 -1.073873025979194
-3.778336259134037 2.753190494866462 -1.079315158741864
-3.221809490608007 2.345940355095646 -1.067887380093001
nan nan nan
-24.442402305434570 18.000746302941714 7.008125147028770
-27.100655433804093 19.943845041257745 6.540550743517202
nan nan nan
-27.313495314426902 20.078439572979992 4.162325554659407
-24.156496264944789 17.744710611919661 2.622341987791539
-29.259624192165504 21.477610042837750 1.902202665606036
-27.257984619373126 20.001015233720324 0.590135671270305
-22.049964766850248 16.244758537396446 -0.478056317130070
-16.770875205150311 12.346492468111759 -1.091414031490350
-9.937535298718348 7.310532158160592 -1.079336718186999
-6.961432854869206 5.119294802050113 -1.060994503685214
-5.416921956532073 3.980580535357479 -1.064692969063811
-4.446670591177094 3.265209567799649 -1.072346554016182
-3.774986601518143 2.770975102477673 -1.081114767176615
-3.210485538331815 2.354887087853589 -1.066852103912590
-26.442677115897880 19.616591680880369 8.822105971364522
-24.307441203777319 18.025983103245448 6.986529845811759
-26.939728661496581 19.963470999807331 6.517653664072018
-22.114012192361027 16.375457183046546 4.358264196020832
-21.692743732788838 16.057645876871018 3.313871185872770
-24.174406393171431 17.881591148875881 2.630708939095314
-29.238031090410360 21.611322768410144 1.905447494893099
-26.987255032620382 19.940376578219205 0.585702760035235
-23.457447121629958 17.401988461455844 -0.509819696845926
-16.757116590685353 12.422258878251711 -1.093193454002611
-9.919641961079689 7.348189845146553 -1.080033964128980
-6.957180927627345 5.151802278304979 -1.062944413179696
-5.413219612302753 4.005571803684832 -1.066570182644294
-4.453182730089803 3.292776917859908 -1.076544351914466
-3.765776960786344 2.783478173401656 -1.081114767176615
-3.213536339799931 2.373554769887079 -1.070475570544026
-26.573297150734209 19.864902870993710 8.889916561181382
-24.178798949901548 18.061739516947419 6.967633957246875
-24.745964462836721 18.471961676755868 6.002469376555347
nan nan nan
-29.133605664735011 21.723431246835336 4.462124139436069
-24.316340819727188 18.118240801044006 2.653020809238715
-28.962168063969425 21.564154177620392 1.892363505832363
-26.691301834545541 19.866111436224607 0.580781181419921
-23.297245494818345 17.409548591147647 -0.507655598447703
-16.712052413618618 12.479481441106948 -1.093088782090125
-9.906706162925174 7.392303395829059 -1.081428456012943
-6.942337765091064 5.178429778373422 -1.063431890553317
-5.421377902987699 4.040970549983260 -1.070950347665421
-4.457406653312934 3.320028772207085 -1.080360531821997
-3.760727052209821 2.800097623723465 -1.082464473502678
-3.223830531819184 2.398595696647610 -1.076687227626486
-23.676582264465825 17.822155517432151 7.940568303745336
-23.958332111969444 18.027688115644018 6.922193844269414
nan nan nan
nan nan nan
-28.183030110145445 21.168110359004253 4.327824123003597
nan nan nan
-29.259969595833695 21.953039354645576 1.917066077179032
-26.722591255815804 20.034731510028397 0.582980184631019
-22.883250553446711 17.224988199414593 -0.499941634802423
-16.719465249212352 12.576160179932398 -1.096438283289673
-9.928621553055999 7.462752366294578 -1.086657800577802
-6.917871249895285 5.197861736274811 -1.062456935806076
-5.426195395649263 4.074102744801622 -1.074704774826386
-4.448931225680492 3.337924257357473 -1.081123767803503
-3.761842905944923 2.821392679816840 -1.085613788263493
-3.218529997205842 2.412151500605706 -1.077722503806896
-23.657277325605527 17.943838579355276 7.956097446451488
-26.085061067321014 19.770951350171583 7.556555817519113
-24.525631935228027 18.575519618286979 5.980335533091668
nan nan nan
-23.442081374565760 17.735539372938245 3.609282474286847
nan nan nan
-29.135358860794948 22.018915768633974 1.913925919804456
nan nan nan
-23.148048516565591 17.551229409451437 -0.507062216628835
-16.731181939316876 12.676660717342509 -1.100101800226679
-9.912042007009076 7.504580200028768 -1.087703669490774
-6.923428075063683 5.239947588125723 -1.066113016108230
-5.430847409229627 4.107317636525408 -1.078459201987352
-4.437252591236144 3.353433589659781 -1.081123767803503
-3.755081287327456 2.836856136450613 -1.086513592480868
-3.199297597597746 2.415223828208070 -1.074099037175461
-25.872965875877760 19.759918708088684 8.723237096135358
nan nan nan
-24.476250711148250 18.672924875359616 5.984151712999198
nan nan nan
-22.483227093330200 17.133831351999174 3.470838900178600
-22.483109873472195 17.121339433226964 2.472434110265567
-25.420667360988105 19.351339684115839 1.674331912124259
nan nan nan
-22.568555574656532 17.236246731572884 -0.495683247631726
-16.640786618790433 12.699846857694553 -1.097066314764588
-9.960245991163236 7.595919106649273 -1.095896309309054
-6.911409737833701 5.268896914747244 -1.067087970855471
-5.424333907350942 4.132235085310476 -1.080023546637754
-4.433330550153276 3.374847882225287 -1.083031857757268
-3.748257512613157 2.852306737330369 -1.087413396698244
-3.192385159691987 2.427546084715868 -1.074616675265666
-23.574298134084849 18.141547828307694 7.970591312977229
-24.106546800622461 18.537744152034179 7.020722406072027
-25.651626487442833 19.711652947367899 6.288301251629411
-27.336154910550405 20.998519195712849 5.459562829904058
-24.843547633578986 19.070014522761511 3.845465261806024
nan nan nan
-23.140364474968493 17.743396134872778 1.528209922293960
nan nan nan
-22.547876764636371 17.345402551591942 -0.496555867953591
-16.673944554398116 12.817501264019336 -1.102195238476397
-9.962111207127009 7.652487487621961 -1.099033916047969
-6.915018156290317 5.309916099071167 -1.070500312470815
-5.400473638073810 4.143929170362954 -1.078146333057271
-4.416849208743571 3.386718703740005 -1.081887003785009
-3.738278268396384 2.865373220492668 -1.087413396698244
-3.194627660057449 2.446897690954322 -1.078240141897101
-23.772085835770383 18.419591858632042 8.058072150221880
nan nan nan
nan nan nan
-22.872500791776055 17.690634268712216 4.579775398517799
nan nan nan
-21.817516699327555 16.856411448151189 2.412122336284188
nan nan nan
nan nan nan
-24.115324823248308 18.685547572530744 -0.532507825214395
-16.646472873240619 12.889076425237182 -1.103346629513742
-9.914853114549997 7.671365195543256 -1.096767866736530
-6.907432556826719 5.342523067812235 -1.072206483278487
-5.395353511416997 4.170003072606577 -1.080023546637754
-4.415876989660034 3.410516037438527 -1.084558329720281
-3.722083423177677 2.873641190830571 -1.085613788263493
-3.189126044116056 2.460394205543958 -1.079275418077511
-25.154058657685816 19.638368275725341 8.550863612097082
-23.509457043060408 18.341184152885635 6.883952165030957
-23.158378577113208 18.054285602462102 5.707860287693961
-25.091686346257255 19.554453458769611 5.038441250015755
-21.378519324497336 16.648716539427671 3.327033074960526
-21.741247783229117 16.919006268700244 2.410204909943739
-22.968636288224094 17.867722554131063 1.525069764919383
nan nan nan
-23.993201839805931 18.725320760447175 -0.531251251950910
-16.645478338731678 12.981496257896612 -1.106277443063347
-9.902158343555113 7.716950220019717 -1.098336670105988
-6.904401378602795 5.378801553831873 -1.074643870146590
-5.380764613950182 4.188810965891103 -1.080023546637754
-4.394647602070957 3.418676803082090 -1.082268621775762
-3.693569710461812 2.872260856495806 -1.080214962959240
-3.192721663639024 2.480994360464339 -1.083416522799152
-23.617297054043341 18.558296705953957 8.048237026507985
-25.446862676322638 19.988773081203568 7.470624514759757
-23.150887925999719 18.172197327653389 5.720835299379567
-25.002153451560126 19.611239997038346 5.032809609274308
-21.332565476490146 16.726867962969031 3.328495507081388
-21.274125567774824 16.669056786095755 2.364535300743966
-21.720555721284796 17.012733673332864 1.445937799080052
nan nan nan
-24.097642275141084 18.935748414928959 -0.534951162115614
-16.572492428453920 13.013187204804671 -1.104288676726115
-9.849866889015633 7.728835839784515 -1.095373374852568
-6.903707840494446 5.415144403128347 -1.077324995701504
-5.391719723793261 4.226128904060444 -1.085029449519041
-4.384832285685658 3.434441771924837 -1.082650239766515
-3.702437093077520 2.898909842429715 -1.085613788263493
-3.185998324362127 2.492758594813947 -1.083934160889357
-23.491563774939351 18.599165220025526 8.028566779080194
nan nan nan
-22.887103895109572 18.094611538823809 5.671224960581665
nan nan nan
-26.056658192009824 20.578308665296344 4.076773275588993
-21.225194158248677 16.750621560837995 2.365581169656938
-21.966807551162734 17.329671408955097 1.466348822014800
nan nan nan
-25.047471064944325 19.823925280448176 -0.557569480858334
-16.545765408660252 13.085824157085277 -1.105544739675945
-9.841585996288350 7.777995847524902 -1.097465112678512
-6.898782148272384 5.450285163932960 -1.079518643882796
-5.375384490152894 4.243699744659029 -1.084716580588961
-4.383606600477861 3.458238608203540 -1.085321565701787
-3.709127301133381 2.925090021924466 -1.090562711459057
-3.172725589267509 2.500277419042775 -1.082381246618742
-23.319482101212230 18.589058027025967 7.990779198495226
-23.810087764660075 18.973347543152865 7.028820644028406
-24.175322979672806 19.250596033206254 6.007048792444383
nan nan nan
-27.143615617441700 21.591006770338911 4.258602335949473
-21.804508720220127 17.331665869542341 2.436874567224522
-21.559035589774091 17.130408319214300 1.443111657442933
-25.210492720905119 20.017435993878841 0.561897677654780
-21.986812700896817 17.526724450929208 -0.490796573829287
-16.440622847088100 13.096212203849774 -1.101567207001482
-9.776963914053868 7.782521948920469 -1.093281637026624
-6.901461745075293 5.491637484567813 -1.082930985498141
-5.368269267468109 4.268584639364496 -1.086280925239363
-4.377656782912455 3.478404581707647 -1.086848037664799
-3.697368287769610 2.936807417500485 -1.090112809350370
-3.174570652811607 2.519744219778208 -1.086004713250177
-24.283330180793353 19.496402198890355 8.344326014105269
-25.594820248758612 20.542015012910426 7.576801412410061
-24.009959984815438 19.256254380145638 5.982625241036185
-24.502546492400509 19.637263679366594 4.973364512559020
-25.058736936780559 20.075833923751844 3.942473259156521
-21.523016521707842 17.230856091358039 2.412122336284188
-21.700267380954735 17.366545260258594 1.456614334153613
-25.137341811511551 20.102817217940846 0.561827868029031
-21.931736315908207 17.608373684806793 -0.490936193080785
-16.569287520030670 13.293505159571621 -1.113290461199901
-9.827462594819890 7.878915984683419 -1.101997211301390
-6.888446345840032 5.520660363868066 -1.083905940245382
-5.364129438100329 4.295941135140625 -1.088471007749926
-4.365488214853400 3.493664263921228 -1.086848037664799
-3.690137803790266 2.952130496111924 -1.091012613567745
-3.173300462664467 2.536841670988727 -1.088592903701202
-23.163601724399644 18.730754410706744 7.981979350961740
-23.698267004003327 19.156260433964981 7.035119273550034
-22.894907774016417 18.493662846949906 5.720835299379567
nan nan nan
nan nan nan
-20.777196468467928 16.753112782525829 2.335076659695258
-21.735925219481171 17.519897761105412 1.463103992727738
-21.914951512743169 17.651582871919366 0.491180526770907
-23.184056712806481 18.747294902504212 -0.520430759959794
-16.608224828088808 13.420302714154136 -1.119047416386625
-9.781298654486557 7.898151972528654 -1.099905473475446
-6.900027016037909 5.569608580035831 -1.088780713981588
-5.372164222678278 4.333242197536062 -1.093164041701133
-4.344095247279505 3.501489070666646 -1.084558329720281
-3.682845358941593 2.967438850930046 -1.091912417785121
-3.176463658873495 2.557595552602515 -1.092734008422843
-24.553570746059410 20.004004988423706 8.486158850821450
-23.619164881056506 19.229023376499555 7.031520056680532
-22.830213360014028 18.573468319449919 5.720835299379567
-21.605875923807584 17.571145495036031 4.410826176274350
-22.584078169985553 18.353582472968739 3.573209148638924
-21.485716687951815 17.448518615942696 2.421535156500934
nan nan nan
-21.822143348603753 17.702776693455377 0.490482430513416
-19.868554068613818 16.181313065576543 -0.447270272174702
-16.675910407810552 13.571486628038702 -1.126793137910581
-9.756760863945093 7.934761141146106 -1.100254096446437
-6.897486774057219 5.607434641129696 -1.091461839536501
-5.367738065333979 4.360687033546097 -1.095354124211696
-4.334894752978126 3.519106218860883 -1.085321565701787
-3.678517308872146 2.985188170288440 -1.093712026219872
-3.142008445238874 2.547982273271281 -1.083934160889357
-24.305364607495381 19.929155614717107 8.421971727636025
-24.046600632802651 19.709964814129282 7.178188144112732
nan nan nan
nan nan nan
-22.467782230382284 18.383119211513751 3.564434555913754
-22.350123216863896 18.273829943321637 2.525773424827134
-22.036800709463613 18.011235916722207 1.491574752923899
nan nan nan
-19.782312541502577 16.220484301519015 -0.446537271104336
-16.655532395321778 13.646964675450281 -1.128467888510355
-9.679522766910758 7.925419154625797 -1.094501817425091
-6.895751512656925 5.644107214398987 -1.094142965091414
-5.350189867275634 4.375961853606281 -1.094728386351536
-4.327761480253752 3.537189179129739 -1.086466419674046
-3.676143292537547 3.003535051013489 -1.095961536763310
-3.136534632262833 2.560831080184784 -1.084969437069767
-23.139311583255317 19.108515425677634 8.040990093245115
-24.789181745423821 20.463707374438936 7.421135282804107
-25.032498315753163 20.649879135343994 6.307763769157818
nan nan nan
nan nan nan
-21.363375486801409 17.591828886724251 2.421186533529944
-22.493456496085134 18.515815467258378 1.526849187431643
nan nan nan
-19.748700517475410 16.308538269061902 -0.447060843297454
-16.640143972350668 13.731715806077817 -1.130665998672558
-9.684079184304984 7.985777970005175 -1.098162358620493
-6.871412652478782 5.664355471404976 -1.093411749030983
-5.336407002365774 4.395866803524966 -1.095041255281616
-4.325998387088334 3.561008414199296 -1.089137745609318
-3.658112717686343 3.010157694939496 -1.093712026219872
-3.143990363041389 2.585260880977725 -1.090663456062023
-23.124454536972383 19.232405826032402 8.059107426402290
-22.631700423427940 18.815905308994303 6.794871547510787
-22.056362760276514 18.324554746183548 5.573912372939627
nan nan nan
nan nan nan
nan nan nan
nan nan nan
nan nan nan
-19.753150758143615 16.428522070261856 -0.448457035812437
-16.595182005746047 13.792270268374732 -1.130875342497530
-9.685266324399974 8.043718955986270 -1.101474276844904
-6.843961853364494 5.681966603122328 -1.092193055596932
-5.328631523972814 4.420773941282329 -1.096605599932018
-4.330167216432741 3.589870369112800 -1.093335543507602
-3.655085247513465 3.029125970200782 -1.095961536763310
-3.128995474969897 2.591290953874014 -1.088592903701202
-23.129327213187853 19.380309587813503 8.085506969002749
-22.643577665592517 18.959845279469246 6.818266457162549
-21.782971361501769 18.226314411260507 5.520867472224948
nan nan nan
-21.475933544258634 17.950299860571924 3.436715484025159
nan nan nan
-25.097200412230908 20.954763670205047 1.713479207393981
nan nan nan
-19.729409657969708 16.525622272694310 -0.449224941695678
-16.548468451030153 13.851396179889765 -1.130980014410016
-9.724373319390386 8.133722344158491 -1.109143982206698
-6.833223754671662 5.713461892125968 -1.093655487717794
-5.313167679311540 4.439347403585008 -1.096605599932018
-4.322130906921839 3.608738433713826 -1.094480397479861
-3.651969835603575 3.048109711840275 -1.098211047306749
-3.128832491286984 2.609621642975692 -1.091698732242433
-24.269003602303520 20.465372836880981 8.506346736339447
-22.424132614007320 18.902948803114491 6.771026735750337
-21.701389751019597 18.280741364353808 5.515524820354405
-22.507973653339974 18.953473743518675 4.660495582478558
-21.121626272952323 17.773463664938202 3.389430178783962
-21.132297853175203 17.769847458562580 2.415608565994094
-26.413545020831865 22.195037922055580 1.808102616281223
nan nan nan
-19.714246705826572 16.624473573142438 -0.450132466830416
-16.531463220810284 13.930650003529948 -1.132968780747248
-9.733923967118356 8.196725088346993 -1.113327457858585
-6.817276986345458 5.738647023766624 -1.094142965091414
-5.312022124417390 4.468386452656000 -1.099421420302743
-4.316151487531674 3.628104364377098 -1.096006869442873
-3.650793539891342 3.067725328030654 -1.100910459958875
-3.120161470683398 2.619982876830129 -1.091698732242433
-23.515655673657914 19.970967303715007 8.266680300574512
-22.258478384863984 18.896607854345227 6.740883294468259
-21.616486579066638 18.338600940288615 5.510182168483861
-22.809276522202833 19.343673203888237 4.736835601418191
-26.926300792636216 22.819009544093181 4.333673851487045
nan nan nan
-21.329128537084838 18.050050567127208 1.464360055677568
nan nan nan
-19.707919192373723 16.737199050590188 -0.451319230468152
-16.540601680692998 14.037379567463894 -1.136946313421712
-9.715889480742902 8.239673486252052 -1.114547638257053
-6.838086996439415 5.797067974750975 -1.100723909635292
-5.296392182266053 4.486901647262902 -1.099421420302743
-4.310952841821978 3.649490969644959 -1.097914959396639
-3.650475868600484 3.089262362864548 -1.104059774719689
-3.113947225195313 2.633353198022355 -1.092734008422843
nan nan nan
-25.625735100019963 21.909660909355775 7.783756382406418
-21.585179471753758 18.442001264281757 5.518577764280429
nan nan nan
-21.383571422929478 18.250390067379957 3.451827282607397
nan nan nan
nan nan nan
nan nan nan
-19.705603308469666 16.853981660003676 -0.452610708544511
-16.549195754749650 14.144342071951787 -1.140923846096175
-9.690098509868863 8.276125977517319 -1.114896261228043
-6.820829194977237 5.823479936779044 -1.101211387008913
-5.283703224715395 4.507926406115106 -1.100047158162903
-4.304163406960258 3.669611683161328 -1.099441431359651
-3.636703774321067 3.099457974762723 -1.103159970502314
-3.116502071038873 2.654227538734142 -1.096875113144483
-24.188780344467823 20.842386587954376 8.555522354908925
-21.901549156569029 18.858264943017815 6.672498173947724
-22.627884557457438 19.469923374876991 5.802501549400728
nan nan nan
-20.890691152652060 17.956145691940467 3.382361756866463
-23.360283107435595 20.064656191627790 2.694158319815609
nan nan nan
nan nan nan
-19.689075436411088 16.959205946809075 -0.453588043304999
-16.549675250394074 14.245020324859029 -1.144378019208210
-9.658129405992062 8.307301844712704 -1.114547638257053
-6.801965094210097 5.848547808065353 -1.101455125695723
-5.275426810658649 4.532779286734942 -1.101611502813306
-4.303244066870135 3.694845146066399 -1.102494375285676
-3.621426280685703 3.108325889496591 -1.101810264176251
-3.117482625293415 2.673893968897207 -1.100498579775918
-23.404467946803280 20.302203075727039 8.301879690708455
-22.336603057273834 19.362224026164881 6.824565086684177
-22.572099144825405 19.552565628449393 5.804791257345246
-21.949162216975413 18.999554129676685 4.597921796462465
-21.011165871326448 18.181195208541876 3.411610399283699
nan nan nan
nan nan nan
nan nan nan
-19.672008990390189 17.058465935138376 -0.454495568439737
-16.505364878848699 14.302438602715716 -1.144587363033182
-9.633540660854427 8.341892151206716 -1.114896261228043
-6.779531426256637 5.868473385621406 -1.100967648322102
-5.266342558340451 4.555417577872756 -1.102862978533628
-4.296908969738483 3.714230374468075 -1.104020847248688
-3.619945907063607 3.127962596279871 -1.104509676828377
-3.108598532381880 2.684217211848625 -1.100498579775918
-23.396017531554115 20.438427827976689 8.324138128587272
-21.625873441313740 18.878749431559445 6.627507963078950
-20.888165647220628 18.221908291735385 5.388064411442872
-22.478317573259122 19.595272869141112 4.723069368494651
-24.524390183006894 21.371386501455781 3.994145860760304
nan nan nan
nan nan nan
nan nan nan
nan nan nan
-16.503494123576804 14.401988705342102 -1.147936864232730
-9.566822825300724 8.342731526716504 -1.110538474090661
-6.767983417978161 5.899929183617981 -1.102430080442964
-5.268282832267795 4.589343081165995 -1.106617405694593
-4.289840857253361 3.734362936890786 -1.105547319211701
-3.613415415736493 3.144417284332210 -1.105859383154441
-3.099209927126521 2.695051892545226 -1.100498579775918
nan nan nan
-21.597895363114542 18.987576551598636 6.639205417904831
-21.272808527001708 18.688618934274139 5.504076280631812
-21.332044500730419 18.727469719595188 4.495926525256236
-24.727155398277326 21.700407671004090 4.039481256507019
nan nan nan
nan nan nan
nan nan nan
-22.950579299461186 20.183877907954912 -0.533485159974882
-16.492127470726544 14.493788769255652 -1.150658333957363
-9.546625214398977 8.383963457947013 -1.111584343003632
-6.754806518411975 5.930066128024110 -1.103648773877016
-5.243321302287413 4.599888567009719 -1.104740192114110
-4.287113313629078 3.758373966312149 -1.108218645146972
-3.620004402854421 3.172423886785591 -1.111258208458693
-3.086876895233095 2.703308246893598 -1.099463303595508
nan nan nan
-21.519812216465827 19.052517327451238 6.635606201035330
-21.145687066883990 18.708123584466140 5.488048325020181
-21.547729500504783 19.050415815903140 4.555371621971523
-24.606633150589523 21.747151845111940 4.032169095902709
-24.912280854207520 22.001797299980673 2.907864201032867
nan nan nan
nan nan nan
-22.900942445016362 20.282428924607323 -0.533973827355126
-16.414512933923625 14.527442406997876 -1.148774239532617
-9.511331791855744 8.411956573997287 -1.110887097061651
-6.751912035627234 5.969386789827976 -1.106573638118739
-5.234634666178175 4.624702604879580 -1.106304536764513
-4.281326782031111 3.779812643171314 -1.110126735100738
-3.598680846643667 3.176014301559059 -1.108108893697879
-3.083217303411899 2.719178225884328 -1.101533855956328
nan nan nan
-21.422204533687520 19.106618077864724 6.627058060970263
-21.109219814244010 18.814238731855315 5.496443920816750
nan nan nan
-22.655711078373077 20.171320515627627 3.724570873148117
-22.107483250419094 19.669380539285640 2.588874182576438
nan nan nan
nan nan nan
nan nan nan
-16.532595033601584 14.740360175193064 -1.160811509468494
-9.470023385991418 8.437483060891969 -1.109666916663184
-6.728505411861221 5.992773404374406 -1.106329899431929
-5.202893328717296 4.630724355817541 -1.103175847463708
-4.277713178096289 3.804612258995106 -1.112798061036009
-3.589928721738594 3.191772466950709 -1.109008697915254
-3.079007056322134 2.735592962606365 -1.103604408317149
-23.804456256798542 21.396043412133718 8.576227878517129
-21.625040075123632 19.423486720261007 6.710739853186181
-20.926533737661380 18.782898621001792 5.465914481556503
-20.287139681782730 18.202609385123548 4.316965497250211
-24.482900895776773 21.951829180035634 4.037531347012536
-20.160088680507229 18.063223877489463 2.368195841939368
nan nan nan
nan nan nan
nan nan nan
-16.436457333281382 14.757949294253645 -1.157671352093917
-9.492416924306665 8.517058594960416 -1.115767818655520
-6.716412287413072 6.024176469496851 -1.107792331552790
-5.239652890045845 4.696321860744529 -1.114439128946605
-4.260019292109055 3.815591537112371 -1.111653207063750
-3.584572812945456 3.209483861189542 -1.110808306350005
-3.072318695475915 2.748900325741605 -1.104639684497559
-23.800160436483555 21.527741873879258 8.599003954486150
-21.332127580808649 19.288586420666476 6.639655320013520
-22.472315130231671 20.305294890906037 5.887220743347913
nan nan nan
-22.127384872745274 19.972591424405564 3.659980121143389
-20.798387816065016 18.759843091073272 2.450470863093157
nan nan nan
nan nan nan
-22.461873982245855 20.317233843186546 -0.528668295798192
-16.396317942127471 14.820409052340390 -1.158299383568833
-9.490734830018370 8.572528625516458 -1.118905425394436
-6.746492539187362 6.091647485441595 -1.116079446904340
-5.232850152056238 4.721611283188395 -1.116316342527087
-4.250259041275310 3.832326674397684 -1.112416443045256
-3.581147637688520 3.227876684963405 -1.113057816893444
-3.058879861072097 2.755194652447962 -1.103086770226944
nan nan nan
-21.287722141083606 19.383924401943094 6.646853753752524
-20.838857155481623 18.961901045124954 5.476599785297589
nan nan nan
nan nan nan
nan nan nan
nan nan nan
nan nan nan
nan nan nan
-16.362209171750557 14.893685849591790 -1.159555446518663
-9.456331698555257 8.601583308371927 -1.118382490937950
-6.751624259895178 6.139198655396950 -1.120466743266926
-5.219260728224622 4.742505439097821 -1.116942080387249
-4.247030098574228 3.856377913181567 -1.115087768980528
-3.575630227999688 3.245596616002286 -1.114857425328195
-3.053536495446192 2.769749093042782 -1.104639684497559
nan nan nan
-21.405212920328353 19.628013929762112 6.704891125773241
-20.364356259102351 18.660494479012314 5.368983511905218
-21.337262571727408 19.538301232928699 4.582278349958443
-24.510341359849761 22.435991725162435 4.079941878517527
-25.291903686593493 23.135188389503526 2.998854796461422
nan nan nan
nan nan nan
nan nan nan
-16.311593120307190 14.952059466416907 -1.159660118431149
-9.417433887676275 8.626464968011424 -1.117336622024978
-6.727225260989234 6.160047624156603 -1.119979265893305
-5.221619810675270 4.778031030729216 -1.121009376478294
-4.234991804306554 3.872504159350412 -1.115469386971281
-3.571471044261545 3.264632088586529 -1.117106935871634
-3.053834175214512 2.789511358310185 -1.108263151128994
nan nan nan
-20.261364137382486 18.709747829381733 6.367014642148756
-20.238496290907829 18.675546864690624 5.352955556293589
-20.034239834667815 18.480591417553729 4.316965497250211
-24.592429386001548 22.669411099328567 4.106753134066659
nan nan nan
nan nan nan
nan nan nan
nan nan nan
-16.328277502710524 15.072578144456337 -1.164579698317986
-9.387264531297330 8.659285391562570 -1.117336622024978
-6.705681697473716 6.183492493416249 -1.119979265893305
-5.213625566192002 4.804260417735001 -1.122886590058777
-4.233002183047742 3.897902553117139 -1.118522330897306
-3.552884737614769 3.270479928453105 -1.114857425328195
-3.052609171215705 2.808001467028915 -1.111368979670224
nan nan nan
-20.095015767621842 18.679977865522659 6.334171788214551
