# This PCD file was generated using the MATLABÂ® pcwrite function
# from Computer Vision ToolboxÂ®.
# .PCD v.7 - Point Cloud Data file format
VERSION .7
FIELDS x y z
SIZE 8 8 8
TYPE F F F
COUNT 1 1 1
WIDTH 1027
HEIGHT 1
VIEWPOINT 0 0 0 1 0 0 0
POINTS 1027
DATA ascii
34.340463191165625 20.674640432291689 7.791494517205831
24.921233113882018 15.015657446300407 4.608246471155121
25.148278820718303 15.158441353394096 3.605382655297883
28.923820011052687 17.447963728305748 2.955276925087593
28.492138592589789 17.194339970443824 1.744043405839860
12.031766176497234 7.266620400769472 0.245345929695332
11.115148263798385 6.683936673627493 -0.226392616304442
10.739909212970838 6.463397635793606 -0.656920922761431
9.218078521862818 5.551926903114266 -0.941456333160203
7.988036867923374 4.812989177904756 -1.145084350634766
6.732679799511716 4.059809601285556 -1.245218341720238
5.378857843252336 3.246015040570614 -1.221177570409887
4.626169727911247 2.792886932306276 -1.247578547391075
3.913796480423381 2.364681187144015 -1.225249359515333
11.047023007901787 6.587960880103967 3.446434404585166
10.912025714047909 6.512619136251177 2.933811650752687
47.811978898836884 28.558239858723571 10.825357543692894
24.843835540660663 14.845181904567125 4.583842694608845
10.528827581206343 6.296382672429884 1.506305084487623
10.165278147758205 6.083793466785361 1.036456092755151
28.394792638783379 17.007397516325625 1.734622933716130
18.602759317469395 11.146755187223537 0.378542695624679
12.843691357966996 7.662454409823236 -0.261053095488887
10.760690398813578 6.424845099572598 -0.656816250848945
9.227140323797343 5.513584097815813 -0.940410464247232
7.967303494856714 4.762668638137494 -1.139722099524939
6.768847481476798 4.049467269612594 -1.249285637811284
5.391840204086239 3.228228053101768 -1.221559188400640
4.640905926674247 2.779725597397506 -1.248928253717139
3.922026913968340 2.351005081473719 -1.225249359515333
11.394655310472386 6.744150092542560 3.547891470265355
27.604687985741805 16.351389740321757 7.407188317434787
11.833478153102895 7.015035954796994 2.673997261206899
24.919231408082741 14.784194231189828 4.589161466420213
24.972624408050535 14.821764776161237 3.565653249347805
10.171692977867162 6.041910744657670 1.035061600871188
18.608542674459947 11.062126608805206 1.134538859434536
13.744679500273268 8.173977352724506 0.279133788557912
11.475272553470626 6.794569684933716 -0.232780197060487
10.749290285186472 6.369780477404523 -0.654827484511713
9.185394041459357 5.447384872120018 -0.934309562254896
7.957444669389711 4.721028736786992 -1.136066019222785
6.787334377817481 4.030024240858551 -1.250224244601525
5.410954541652708 3.215344890826488 -1.223467278354405
4.628321914666872 2.751375209871912 -1.243079526304198
3.939763037308813 2.343912699276526 -1.228355188056564
11.429788717204099 6.711181381327197 3.551514936896790
11.476941679481369 6.744256497904479 3.073281304445884
9.876218661190045 5.808253946540234 2.227122594035031
24.929828651779477 14.673072164170938 4.581652612098281
10.775001574753773 6.344428130582902 1.535309988218048
9.959273909771932 5.868802243303081 1.011355238843825
24.874767003253648 14.669906477262513 1.513451182633450
18.674756760834274 11.017840723038164 0.378472885998930
11.236836467091603 6.600524031347391 -0.227474665503553
10.702588255772540 6.291732307290665 -0.650640608012278
9.125360420869855 5.368814183707705 -0.926291233922111
7.937949590597603 4.672078127984884 -1.130947506799769
6.845613532809113 4.032374535842290 -1.258358836783617
5.428910221620453 3.200425615018764 -1.224993750317418
4.592576332154017 2.708474225048070 -1.230932169369629
3.964557651563988 2.339965490302780 -1.233531568958614
11.430936919881008 6.655635315438952 3.544268003633919
nan nan nan
9.895055692838293 5.768311784607002 2.226359358053525
26.688799638340136 15.570690855611016 4.893895804318582
10.806140715788151 6.307010972291362 1.536284942965289
10.024744909118930 5.855641088381886 1.015713025981208
9.947190725797968 5.814998117704800 0.603852263131086
15.949864616566162 9.327818569152269 0.322520470960999
11.447005613068864 6.664991273100483 -0.231209480481132
10.695606038168542 6.232490871422950 -0.648756513587532
9.128696900067514 5.323698684394823 -0.924548119067158
7.894104250955191 4.605552086988975 -1.122172914074598
6.823516894522711 3.984146798451088 -1.251475720321847
5.449634248553870 3.184509135067423 -1.226901840271183
4.643318932166771 2.714423759909038 -1.241729819978135
3.910150447207256 2.287654731880740 -1.213861321530822
nan nan nan
9.740888173286411 5.628438938254067 2.597284873454265
9.978013644617251 5.770100567230140 2.240479223711389
24.999103926883333 14.468165844870603 4.574769495636511
10.819500825572694 6.264278848756804 1.535066249531238
nan nan nan
24.953989650621242 14.471141231300155 1.511776432033675
12.005772286201825 6.965102940548813 0.242274306162370
11.987953165275007 6.924037991549294 -0.241646019530628
10.687900712401571 6.178126172673212 -0.646977091075272
9.088588407030075 5.257879349591814 -0.918621528560317
7.899823934105993 4.572002386894075 -1.120710481953736
6.011768643121968 3.482097297944354 -1.100360027092984
5.455621521922851 3.162513181011518 -1.225756986298924
4.683109875078443 2.715795965005916 -1.249828057934514
3.981603824557029 2.310841156950286 -1.233531568958614
27.330433667939758 15.671296445641811 8.441641975063817
nan nan nan
10.069304411625843 5.780756492239741 2.256888797313772
25.097530098678330 14.420064775777899 4.584468432469006
31.359119872700312 18.025011496808979 4.441162612370384
10.217065233966027 5.877446162977559 1.031226748190291
11.928801685184013 6.864907071931535 0.721294148940252
12.464268460604670 7.178855858483969 0.251070319006761
14.355023054677940 8.231183760460208 -0.288837326537042
10.622375100824444 6.095807915890809 -0.641848167363463
9.060141036913326 5.203501600395232 -0.914089429937439
7.891772495674915 4.534305572536300 -1.117541879025202
6.664846148120721 3.832456513723205 -1.217685875873157
5.441707551851251 3.131648730692318 -1.220414334428381
4.684863285032923 2.697180933825120 -1.248028449499763
4.008930384601905 2.309894782214309 -1.239743226041074
9.485262652375969 5.392759488426244 2.923619933478074
11.336250357916416 6.450358875140976 3.011194813446977
9.850578412752936 5.609559957871559 2.203462278608340
26.598844042453070 15.153260054921073 4.848529809456916
26.394973012176951 15.049321820810638 3.730664340318375
10.244441023485402 5.845695936897799 1.031923994132273
9.456693778834643 5.398378745374914 0.570671266873059
16.043470457969132 9.165884365956341 0.322520470960999
11.169721961658642 6.353023340072583 -0.224298327531968
10.546387002681767 6.003361251021616 -0.635986540264253
9.059206592308659 5.160995461509844 -0.912172003596990
7.902378125622683 4.503781733473362 -1.116810662964771
6.535765734982663 3.727934957937893 -1.191717754676479
5.425325813664815 3.097061641646091 -1.214308446576331
4.682404042496809 2.674046432413085 -1.244879134738949
nan nan nan
9.495615484947653 5.354872185052666 2.921031743027049
9.503004567348379 5.361225381178318 2.519001906542600
nan nan nan
26.515713377158420 14.983546531425402 4.823813163980559
9.872506768363277 5.581047214928324 1.392479117747215
24.024047663893040 13.592152190116170 2.414911320052113
9.483368923773867 5.367617173331481 0.571089954523003
14.728511245218312 8.343174121826209 0.295469240983210
12.102161696090509 6.824784464802084 -0.242518639852492
10.443086040126722 5.893985778035274 -0.628450162565270
9.010405630383262 5.089541487937798 -0.905373855662673
7.898093256399110 4.463068601380221 -1.113885798723048
6.576896601643734 3.719513890111003 -1.196723657557766
5.493023179702325 3.109068706476610 -1.226901840271183
4.673520079785176 2.646304429642732 -1.239930211543384
nan nan nan
9.493257803717327 5.307777078456668 2.914302447854384
9.552271645388508 5.345149883060339 2.527100144498979
9.854495471698286 5.518782633586983 2.195448300802525
27.993931377437338 15.683773689339603 5.082242900227020
9.879807773019280 5.539755678570033 1.390772946939543
36.272082798935131 20.354943547860994 3.638926571200224
9.521204982416922 5.345236339511144 0.572241345560348
12.665512310993993 7.116276647662564 0.253583465533729
11.399892063678946 6.376407588923171 -0.227998237696672
10.528078789035868 5.893593861645313 -0.632323023327247
8.979447459186714 5.030791134921048 -0.900493134068804
7.884186166042905 4.418972353117069 -1.109742241047273
6.681150261493161 3.747753518491275 -1.213305710852031
5.515825872057533 3.096603103093095 -1.229573166206455
4.682728933403972 2.629974677969976 -1.239930211543384
nan nan nan
28.606750062725311 15.870036831630369 8.765683419532174
32.583901688460855 18.083861109834203 8.603478024435461
9.810197602268786 5.449078203005450 2.181328435144660
28.038880596857400 15.587017066111889 5.080991424506699
9.900819793253214 5.506199778598160 1.391016685626353
nan nan nan
nan nan nan
12.662327288142899 7.056447406672303 0.253024988527736
12.644375929805824 7.014663017609550 -0.252396701895994
10.496202158453459 5.827722811705148 -0.629182865952671
8.939481663171739 4.967480487744790 -0.894740855047459
7.861392702040155 4.370205215105526 -1.104379989937446
6.578536465070768 3.660062700766168 -1.192343492536640
5.524886159300578 3.076375312695769 -1.229191548215702
4.695285577583070 2.615509552061999 -1.240830015760759
nan nan nan
28.952488957709281 15.923346509393861 8.853681894867028
32.617805194191710 17.954036879725791 8.595829688587770
9.781010234786848 5.388276457559082 2.170643131403573
nan nan nan
24.710431292882728 13.629639003280959 3.464989171695153
34.219015102786706 18.889911197410914 3.419642722447116
9.535560750948930 5.266083980843004 0.570880610698031
nan nan nan
11.661378863142435 6.416199142645949 -0.232326434493118
10.509482603659203 5.787195090151008 -0.628764178302727
8.960256819658781 4.938168947302126 -0.895089478018449
7.852262351102016 4.329318907959304 -1.100967648322102
6.274766787935356 3.462428613470833 -1.135088478331915
5.526998083984512 3.052325587598440 -1.227283458261936
nan nan nan
nan nan nan
11.459192059290279 6.255540153066300 3.498198213605670
9.933474619789475 5.424905956202129 2.613031447258336
9.747143059637864 5.327563879505252 2.159194591680981
9.186766075564066 5.025440324845720 1.658518198356528
9.039516308552630 4.946940227288551 1.265247523232241
32.289375503216633 17.685242175925431 3.220927628982456
9.631791180073366 5.277622366235306 0.575590846759896
15.671480701499757 8.594110634055497 0.311979217472880
12.504023851868704 6.825910838700779 -0.248661886918415
10.481292288949984 5.726457327864484 -0.625938036665608
8.967842524215879 4.903649128084038 -0.894217920590973
7.831744740503357 4.284202461354974 -1.096092874585896
6.355521877295309 3.479546591297494 -1.147603235535134
5.502654934441805 3.015112580074014 -1.219651098446874
nan nan nan
nan nan nan
nan nan nan
9.995189531822589 5.413400221046988 2.624278999975529
9.750146389092230 5.285087329963696 2.155760029764203
9.153028885770391 4.963485613211416 1.649132130454114
9.046261090362780 4.909674890303128 1.263785091111379
23.738825257532842 12.894495612389969 2.363489431830994
24.089411799805511 13.090373212099179 1.436831342693780
15.827866667264816 8.608143314110952 0.314492363999849
11.768089174330566 6.370947509083019 -0.233583007756603
10.360732984660050 5.613717696510615 -0.617564283666737
8.953378836998629 4.855219796821808 -0.891080313852057
7.741959867218211 4.200042759596458 -1.081468553377279
6.397140953647879 3.473364142173581 -1.152922007346502
5.495895973082395 2.986512498536904 -1.215834918539344
4.721969225489258 2.567022303276605 -1.240830015760759
nan nan nan
11.548540232202107 6.200060418567051 3.512174442041207
10.000290626127702 5.371100899015188 2.620679783106028
32.943948951648139 17.708832832774004 7.270204341837111
nan nan nan
9.122775704596483 4.910054963558826 1.272072206462930
23.708265000961681 12.770923488037088 2.355994037954696
nan nan nan
14.168195010246192 7.641550777652715 0.280983743640265
11.790256236043060 6.329830397959738 -0.233583007756603
10.327484384667336 5.549157528623821 -0.614424126292161
8.935177208265110 4.805064099332661 -0.887594084142151
7.712869655248664 4.149480221077044 -1.075375086207021
6.370962246020854 3.430409730681836 -1.146038890884731
5.459623912043295 2.942163351314010 -1.205531232789010
4.720609012210010 2.544975277578840 -1.238130603108633
nan nan nan
10.089956291672094 5.371703509902707 3.062864579743230
16.181725019827660 8.618471995628749 4.232679038534163
33.038480815122050 17.611275732725979 7.277455083661419
9.880259250938474 5.271135811948950 1.773653964626138
11.139805660875581 5.945603932397394 1.550421786800286
nan nan nan
15.080264839440437 8.058877582889020 0.896096242791684
16.573510861558415 8.864305476251689 0.328070336208055
11.653417538078518 6.204060957461725 -0.230441574597891
10.315063829855685 5.496168565042638 -0.612540031867415
8.911460855119733 4.752282306098837 -0.883584919975758
7.713295618630652 4.115056875623085 -1.073425176712539
6.325394212767416 3.377445968809522 -1.135714216192076
5.416183704396476 2.894402844041111 -1.193701075075664
4.815391633541134 2.574420757875926 -1.260625708543019
nan nan nan
12.107482020749911 6.391655064556753 3.668501145283129
10.580346787040394 5.587827298842027 2.762398947342663
9.966375958225257 5.268019314014662 2.191250502904241
9.253398674475989 4.893220775791273 1.657892460496367
27.859998376929937 14.744884753227025 3.870326607860673
9.729310601524300 5.153579122426521 0.963245268847118
14.790642832707782 7.837853771055316 0.877255298544224
14.563919420597911 7.724221126475810 0.287755277337931
11.834159109465480 6.247365296694489 -0.233583007756603
10.274144785651584 5.428405552051155 -0.608981186842894
8.876917622216618 4.694136636934408 -0.878529886896394
7.718839453276070 4.083466021869699 -1.072206483278487
6.358094403059904 3.366437697714530 -1.139468643353042
5.460948777580005 2.893864617922047 -1.201333434890726
nan nan nan
nan nan nan
10.049398473914042 5.258166010344849 3.039053227593799
16.269120075028287 8.519757919355575 4.239877472273167
10.014265181853762 5.248691695310367 2.197738008747043
10.045436474099898 5.267264329903734 1.796493396522011
10.361930921563379 5.437828579421139 1.436839558746689
10.241129091911960 5.378993278563695 1.012052484785807
9.283958428419339 4.878321876465729 0.549632212463396
14.459823010485707 7.604458905974698 0.285172321185213
12.220854673675058 6.397058325132575 -0.240773399208763
10.204572365256450 5.346165699671316 -0.603747591218600
8.815609659110232 4.622412019976143 -0.870860181534600
7.729530563779291 4.054653084541770 -1.071719005904867
6.310341206539137 3.313003200320802 -1.128831099730306
5.495348059562880 2.887569657323784 -1.206676086761269
nan nan nan
nan nan nan
11.918614761359041 6.185942574999066 3.598102365015244
10.548189735139898 5.477008258158071 2.743952960886465
10.088271455645174 5.242673458019216 2.209949784451142
10.212737376027246 5.309619962562492 1.823087255578850
10.463614398685189 5.444691956958622 1.448295277026773
nan nan nan
9.292074046510367 4.841270843676714 0.549108852900967
12.753954461572988 6.650609392156206 0.251070319006761
12.326529398166784 6.397656483814638 -0.242413925413868
10.169999959708772 5.282891966521264 -0.600607433844023
8.836994437772804 4.594368811048824 -0.871383115991086
7.666147651281282 3.987343332584269 -1.060994503685214
6.293832412837713 3.276361775817910 -1.123825196849018
5.517581858561655 2.874719685373776 -1.209347412696541
nan nan nan
nan nan nan
nan nan nan
12.435007172069323 6.401703765304561 3.228947434051838
10.216458561591823 5.264078215962572 2.233991717868586
9.934474273418312 5.120978905154173 1.770212406395253
10.505490071851726 5.419965955189193 1.451463879955307
10.726320619886202 5.538637936002390 1.056153290616122
9.314240061817843 4.811555941921972 0.549422868638424
12.782420688363285 6.608804464369939 0.251175033445384
12.226098563837434 6.291455735400657 -0.240005493325523
10.138662003542274 5.221754057352910 -0.597676620294418
8.815787994434826 4.544323444735062 -0.867722574795685
7.627090224151609 3.933263814255345 -1.053682343080905
6.287677167927484 3.245312183734049 -1.120696507548214
5.581655172385409 2.883374911126029 -1.221177570409887
nan nan nan
nan nan nan
11.759125177516337 6.001917938929162 3.537538708461254
46.744038229266799 23.868682057854741 12.117213493286632
12.651594707079957 6.465791301464278 2.761769399080110
10.151000793700538 5.192294121702007 1.805879464424425
10.235359366266040 5.237698007550185 1.411734474005228
9.850868281675659 5.045283799982468 0.968300301926482
9.256438672858966 4.744916325849074 0.545131320226503
12.790031121164809 6.559080058950028 0.250895794942388
12.220177948483817 6.237241643293978 -0.239481921132404
10.123907051834864 5.171749536851736 -0.595792525869673
8.754528449468474 4.476063094355868 -0.860227180919386
7.592374026136464 3.883542108491961 -1.047101398537027
6.201695269941727 3.174933768060998 -1.103488716393789
5.605164063568376 2.872011745841315 -1.224230514335912
nan nan nan
nan nan nan
11.601760066089456 5.868097425147982 3.483704347079929
12.459168626500146 6.307231939482726 3.223998510856273
11.362371064490501 5.756981254967556 2.475937524006046
9.969101259268124 5.053238973045215 1.770212406395253
nan nan nan
11.101305858142016 5.636887237106201 1.089272472860232
11.497833460574991 5.840755613313100 0.675866538921377
10.322649777642225 5.248310919393031 0.202133771356618
11.940333928369498 6.041963311500298 -0.233583007756603
10.047463748884493 5.088552559986925 -0.590244914507920
8.718562937640169 4.419353448182879 -0.855172147840022
7.582867919765746 3.845344513777735 -1.043932795608493
6.210978594110224 3.152372432482768 -1.103175847463708
5.601152226290195 2.845315286475683 -1.221177570409887
nan nan nan
nan nan nan
11.646349749413865 5.839686693017065 3.490951280342800
12.105959336376113 6.072787448012570 3.126819655379724
12.465940574387950 6.258814446825610 2.711395824300702
10.015798697433524 5.030852850849275 1.775218309276540
9.389334175822404 4.720290020944571 1.290352607973702
10.009524386873592 5.036455396810281 0.980327794425659
16.049064368718781 8.082370164442844 0.941733196635531
14.692129864526402 7.402227643733559 0.287161895519063
11.969548898178562 6.001744488707997 -0.233722627008101
10.024989978534336 5.031088058292625 -0.587837460520745
8.727580468165405 4.383791488394956 -0.854474901898041
7.596910879307329 3.817526085060191 -1.043932795608493
6.188960743565892 3.112722972891598 -1.097231337792179
5.594007133766680 2.815939529230283 -1.217361390502356
nan nan nan
nan nan nan
39.935486033987175 19.850217005308298 11.949675312383382
12.528411512205889 6.230063030635671 3.230297140377901
10.631691722603723 5.291501790056241 2.308407226065439
nan nan nan
9.224532308315762 4.597172126301688 1.265491261919051
10.000300377402578 4.988145287831016 0.977713122143229
15.517864320839580 7.747069306823876 0.908970888027449
11.368921932226318 5.678248845240160 0.221820085817873
12.112192545496580 6.020451340784145 -0.236096154283571
10.004938629041916 4.977381799743361 -0.585639350358541
8.696457987576958 4.330210122092196 -0.849942803275162
7.595975558055192 3.783903670348075 -1.041982886114011
6.203324134087852 3.092863322050182 -1.097857075652340
5.561642246747447 2.775356931330833 -1.208202558724282
nan nan nan
nan nan nan
36.564680296383138 18.015840109776477 10.922163703326376
12.667850749629013 6.247092654826774 3.260890483768667
10.647420032113830 5.255347795551937 2.308025608074686
nan nan nan
9.889283395071484 4.887588279922998 1.354455882604809
nan nan nan
25.461700517982486 12.600548663993845 1.488853283199266
nan nan nan
11.167119360942607 5.504591023986149 -0.217317364957054
9.919294629566350 4.893807230101978 -0.579673051346846
8.642884258161809 4.267826240629971 -0.843318966826340
7.580005480850189 3.744626076930694 -1.038083067125046
6.211775584877063 3.071399810740312 -1.097544206722260
5.577853382991932 2.760381732688043 -1.209729030687294
nan nan nan
nan nan nan
10.366753632715287 5.062924554795774 3.091334674704508
11.218933307336199 5.483963875217472 2.882972712470974
9.831560204234648 4.810050034064020 2.127520298448474
51.953470735874610 25.429258960947337 9.161428010616081
9.956198706724958 4.877491418063882 1.361280565835497
31.969691810262741 15.675630560535319 3.115120557286798
15.157851687358979 7.438881278596214 0.884896348155694
14.803473845391364 7.268172723177970 0.287859991776554
11.141348388355210 5.443630384386382 -0.216444744635190
9.875313744742870 4.829320331492429 -0.576114206322326
8.614780461008374 4.216609210737907 -0.839135491174453
7.559156904708557 3.701556940990594 -1.033452032075651
6.241970628020075 3.059260862415170 -1.100985764953145
5.555728057775709 2.725331134472942 -1.202859906853738
nan nan nan
nan nan nan
nan nan nan
11.167857704067156 5.410781757012029 2.864976628123465
12.653507615908174 6.136027751697820 2.733529667764381
nan nan nan
10.137448553025839 4.922480535480853 1.383704525022045
32.029591098418820 15.566552723722976 3.115643491743284
10.039866061082567 4.883761742021932 0.585115990796112
14.231792215708552 6.925941404264134 0.276271593902198
11.349256629181021 5.496223218079058 -0.220109749987020
9.829207005579772 4.764329317929631 -0.572450689385320
8.573876925002613 4.159553065175194 -0.833731835124098
7.552387274857800 3.665613425995217 -1.030770906520737
6.241950524033054 3.032274731587324 -1.099108551372662
5.551082499504412 2.699053599950551 -1.199806962927714
nan nan nan
nan nan nan
nan nan nan
9.257818284281692 4.445541019059870 2.370984112784337
12.637689992674357 6.073961793825190 2.725515689958566
11.652639471223665 5.605532039448773 2.048040016306703
nan nan nan
11.121786504191135 5.357336613609394 1.080033964128980
11.373778336673078 5.483612681302955 0.661735830735782
nan nan nan
11.456709432929012 5.498973069488811 -0.221820085817873
9.843977447076236 4.729125083748302 -0.572346017472834
8.561410272921879 4.116648442645757 -0.831117162841668
7.545459057746508 3.629762390314938 -1.028089780965824
6.224020038067589 2.996756573413546 -1.094102648491375
5.464965877623075 2.633635563245936 -1.179199591427047
nan nan nan
nan nan nan
11.318516180347874 5.384113258868543 3.358435929250309
9.296154979592071 4.424084565779152 2.376832840197278
10.670129767418141 5.082534630727242 2.297340304333600
11.615076419370148 5.537619053818879 2.038028210544128
34.442139386889863 16.428057781326082 4.685388776554300
10.825769020775716 5.168266347011158 1.049529454167300
11.223453407344362 5.362933930560654 0.651896670962108
14.279797196722884 6.826416777993272 0.276271593902198
12.012156094067182 5.714071337898455 -0.232186815241620
9.826162568073981 4.678421292686110 -0.570357251135602
8.557741892094272 4.078167284065341 -0.829374047986715
7.541956545379680 3.595713085375747 -1.025896132784532
6.261184713828196 2.987773423064352 -1.098795682442582
5.548531278747411 2.650080708122215 -1.195227547038677
nan nan nan
nan nan nan
13.699128443352095 6.455083824834139 4.057764989117320
11.719181900296423 5.527125011129299 2.991399120664717
9.610148590853633 4.536541752762138 2.065698183946474
11.646837910427895 5.502948301129547 2.040218293054691
10.559940137122362 4.991660834721950 1.434158433191776
10.407904790311495 4.924239612533392 1.007346074677433
11.243910253885419 5.324578898979714 0.652001342874594
14.411967435827169 6.827899169145668 0.278365882674672
11.324794341637636 5.338703757513563 -0.218539033407664
9.786438683571344 4.617672291716192 -0.567112421848539
8.517877768037033 4.022745310929110 -0.824144703421856
7.529334283302876 3.557492395926697 -1.022483791169187
6.266218575416350 2.963366093911984 -1.097857075652340
5.586140054604184 2.644135637322794 -1.201333434890726
nan nan nan
nan nan nan
18.169675259920275 8.488106802278189 5.373601014418536
10.550263337066928 4.930881958854266 2.688615001517875
9.510336176988647 4.448896211852118 2.040893014547523
50.549580279263964 23.668396068512290 8.840424488353527
10.651003094083780 4.989294429206725 1.444151719350998
nan nan nan
10.682914352432055 5.011065388396815 0.618401658966624
14.343397287845605 6.734208088037593 0.276585737218069
11.999214062759421 5.605527289349433 -0.231174575668257
9.760885075172636 4.564025728295663 -0.564704967861364
8.461490793091405 3.960050778293386 -0.817346555487538
7.509346255170306 3.516036738605306 -1.018096494806602
6.278313170729004 2.942313121179758 -1.098169944582421
5.565119542591576 2.610446644255144 -1.194845929047924
nan nan nan
nan nan nan
18.190144082975650 8.416587176466168 5.370495185877306
10.593935677473135 4.906308824945362 2.695363533148191
nan nan nan
39.217086629872476 18.187329269395558 6.846823665880825
10.742177301940186 4.986352686747174 1.454145005510220
10.973254787620906 5.098271751009638 1.058593651413056
nan nan nan
12.292657377961479 5.719105627066043 0.236654631289564
11.996931592160321 5.553527543073481 -0.230755717913763
9.742325449627867 4.513972674936728 -0.562716201524132
8.397540863459644 3.894446371766129 -0.809851161611240
7.534178747845490 3.495651172345345 -1.019802665614274
6.281379076926882 2.917051724706716 -1.096918468862099
5.574197797252020 2.591004848113630 -1.194845929047924
nan nan nan
nan nan nan
13.160825908390860 6.036614019918764 3.879697486086786
11.076811454409322 5.083057449668289 2.813687787733063
9.585764868098119 4.402879796445450 2.050433464316351
34.678930612627475 15.943193471952725 6.045253467014682
10.649505647951448 4.898225324346762 1.439276945614792
10.131323841204326 4.664173665795215 0.975795695802781
11.582958002587590 5.334915060794551 0.668330161222393
12.310729881318556 5.675324210496924 0.236619726476690
12.228904730192449 5.609159961265420 -0.234839581020087
9.679973139611397 4.444105273829509 -0.558215309287239
8.373065613638770 3.847639394908720 -0.806190620415838
7.539120477405796 3.466013924197368 -1.018827710867033
6.348947276112416 2.921532107005516 -1.106930274624674
5.536844857898991 2.550177339423088 -1.184923861288343
nan nan nan
nan nan nan
11.571721734666124 5.256473211546312 3.405540995458968
10.643895573102364 4.839489473325872 2.699412652126380
9.581419360640712 4.360447068021579 2.046235666418066
9.862742385900850 4.490553559679149 1.716398950421413
10.570801837578772 4.817391939416737 1.426358795213846
nan nan nan
11.339862558722071 5.175045498450122 0.653257405824425
12.332284379626440 5.633148015586931 0.236654631289564
11.370922699328551 5.167654228425714 -0.218015461214546
9.637250790323979 4.383825400197303 -0.554865808087690
8.361059373161272 3.806830135248300 -0.803750259618904
7.496978169997925 3.414989694003665 -1.011515550262724
6.274630102420024 2.860836359727380 -1.092225434910892
5.592150437261673 2.552026781378222 -1.194845929047924
nan nan nan
nan nan nan
11.390036599010951 5.128446225394610 3.347047891265798
13.969101618457398 6.292621445684035 3.537130378502933
12.397523693781917 5.589883731925795 2.643467821946652
9.679523640180941 4.368438857140050 1.681983368112562
10.545941221145940 4.761675044145073 1.420752805417209
9.931244017253158 4.488302670718554 0.953483825659380
18.833916019623054 8.515713805755649 1.083249622316451
11.034703887569169 4.993957183636730 0.211418451581252
11.148204466364254 5.019559561416832 -0.213408025915103
9.639748310550376 4.344414000934581 -0.554133104700289
8.365215970168608 3.773525084321486 -0.802878702191427
7.517899845334603 3.392882442284416 -1.012734243696776
6.300780063591813 2.846235274792862 -1.095041255281616
nan nan nan
nan nan nan
nan nan nan
11.332886615889326 5.052838018583551 3.324789453386981
10.721911182617088 4.784918165021012 2.710660204843574
10.934525631044798 4.884380378398546 2.327869743593847
9.855978832383471 4.404664239460645 1.709828702889723
9.748883334764781 4.360886259052326 1.311314135039387
10.885164125801500 4.873729866423673 1.043428552174964
18.898158707794256 8.465432717517309 1.085238388653683
10.765594528993962 4.826962172460517 0.205938395959945
11.214966678374171 5.002609347633340 -0.214350455862716
9.632969593778085 4.300967307717199 -0.552877041750459
8.347413981949352 3.730482429351424 -0.799915406938007
7.527885212071307 3.365809146571269 -1.012490505009965
6.310676892273494 2.824224107707570 -1.095041255281616
nan nan nan
nan nan nan
nan nan nan
10.299969252819906 4.551419899765007 3.017312427805187
11.337411785260405 5.012217317707803 2.861827313362650
9.542175188943151 4.222533991759765 2.028299620852672
nan nan nan
10.705968211219604 4.744232085927237 1.437814513493930
10.337517218930664 4.585274826564763 0.989391991671416
10.670503829681010 4.735202193526801 0.611807328480013
12.165812130260163 5.403852275850127 0.232361339305993
11.301865637312604 4.994144633203820 -0.215676838751950
9.633311552306226 4.260852584033921 -0.552039666450571
8.365850435040487 3.703741481280591 -0.800438341394493
7.505102858326440 3.324236810871193 -1.007859469960570
6.329526108530697 2.806181640526141 -1.096605599932018
nan nan nan
nan nan nan
nan nan nan
11.351956774022497 4.966627977352501 3.320130710575136
12.127774495553869 5.311102777348162 3.056634926424438
9.549664082905439 4.186047121880702 2.026773148889659
32.608226869120301 14.300437180772388 5.639462464700324
10.535242946298924 4.624648325264598 1.412709428752470
10.709154808500783 4.705449508044211 1.023382731343002
10.686967761558336 4.697926335760379 0.611807328480013
12.102235490016465 5.325111062940133 0.230790622726637
12.401874801013310 5.428559762161427 -0.236305583160819
9.611538505392724 4.211169755001648 -0.549946228200854
8.356832307360381 3.664914253734776 -0.798346603568549
7.503936188605674 3.292435757298525 -1.006153299152898
6.351943428304827 2.789630572649481 -1.098795682442582
nan nan nan
nan nan nan
nan nan nan
17.924997497047151 7.775417870525891 5.235391644333790
14.040233115395925 6.093215538211751 3.533531161633432
11.429013391534397 4.964733439698191 2.422129387309860
9.916364957809499 4.311758198284527 1.712644523260448
9.609420266593149 4.180289246651095 1.286696527671547
10.850743751885412 4.724794778536182 1.035410223842179
15.113487598293768 6.584081282769521 0.863961965658517
12.169318781711832 5.306530333595949 0.231733052674250
13.001356259525878 5.639664821043587 -0.247370408842056
9.586977910811397 4.162569223063980 -0.547748118038650
8.356148696486224 3.631622836652459 -0.797126423170082
7.491147204199493 3.257243507039939 -1.002984696224364
6.314066386888578 2.748055321159969 -1.090661090260490
nan nan nan
nan nan nan
nan nan nan
nan nan nan
11.520908779167636 4.952155155669438 2.895120069405543
9.612201035394158 4.135690760583083 2.034023890713968
9.581199818804299 4.126316543316479 1.652260819754918
9.623953655291318 4.146720642445406 1.286696527671547
nan nan nan
12.244438769644869 5.283425204395490 0.698894359668272
10.933927632310853 4.722472975540904 0.207893065480921
nan nan nan
9.548240707766613 4.106196723789546 -0.544712632576559
8.350474113870098 3.594554696542962 -0.795383308315128
7.491532262169266 3.226363513211432 -1.001522264103502
6.316364403787238 2.722870435829979 -1.089409614540168
nan nan nan
nan nan nan
nan nan nan
19.904004733976336 8.469255494166907 5.795993696025850
11.945141828402232 5.085181219637038 2.997247848077657
9.864985557202022 4.203703505486596 2.084397465493375
10.030553042582881 4.276324427375807 1.727036494044149
nan nan nan
nan nan nan
11.594293713701997 4.954955182044249 0.660793783523409
11.933964541578057 5.105044725686816 0.226567140368815
10.786354111780058 4.589648668405088 -0.204612013070712
9.489014563325249 4.041536653801193 -0.540525756077124
8.328147776361261 3.550538202595313 -0.792071390090717
7.475359772933560 3.188511148550754 -0.997866183801348
6.304029834331712 2.691497847291045 -1.085655187379202
nan nan nan
nan nan nan
nan nan nan
9.740457785719952 4.102515508889736 2.831997991511782
16.109044592606839 6.791477792139119 4.036071817037626
9.530503069000984 4.021922304007394 2.010745193278029
32.356440477687393 13.661241130504743 5.562809576830610
9.738608113537975 4.115752271124085 1.298152245951631
11.334509890514612 4.794879683338209 1.076722045904569
11.628072824560073 4.921459547435895 0.661735830735782
11.023709497965797 4.670207094541222 0.208975114680033
10.794938187024940 4.548863218264162 -0.204472393819214
9.436815255583648 3.980445345185333 -0.536757567227632
8.292767851342154 3.501296792352853 -0.787539291467839
7.480958297261374 3.160080507003661 -0.997134967740917
6.309747669308042 2.667937676059569 -1.085029449519041
nan nan nan
nan nan nan
nan nan nan
9.742237989900207 4.063284446744166 2.828374524880347
10.776267950416598 4.496764946393419 2.695813435256878
12.443697543815196 5.197657511927688 2.621333978482972
12.827643299124517 5.360658986720575 2.201971529906290
11.030060000187905 4.613974046081018 1.468038110658406
11.344656724947908 4.750226354918222 1.076024799962588
10.058104861622176 4.213585701576977 0.571508642172947
11.763648063072958 4.932907028484131 0.222657801326863
10.697110755935116 4.461541978829867 -0.202308295420990
9.418165398128213 3.931980531690388 -0.534873472802886
8.272455223791534 3.457050558982119 -0.784401684728923
7.486995952362657 3.130342980080975 -0.996403751680486
6.277572543833121 2.627252934249033 -1.077833464127191
nan nan nan
nan nan nan
nan nan nan
nan nan nan
10.791898936628556 4.459121355590578 2.695813435256878
9.388503942429617 3.883087682939813 1.974873102147239
nan nan nan
nan nan nan
nan nan nan
10.781165052502434 4.472319752728826 0.611702656567528
10.842616414685715 4.502248166684788 0.204926156386583
10.646081265389535 4.396695565505927 -0.201051722157506
9.404146794044355 3.887635600964940 -0.533303394115598
8.258698270129550 3.417487874277491 -0.781961323931989
7.474033731980700 3.094317972106024 -0.993235148751952
6.337801710241846 2.626499459000132 -1.086593794169444
nan nan nan
nan nan nan
nan nan nan
nan nan nan
9.635033777838450 3.941796390634543 2.403377064609854
9.400184438130912 3.849548013483523 1.974491484156486
9.312480505036993 3.817428009687091 1.594067198759952
9.963699798077808 4.086411096799637 1.322282375945850
10.468887619672731 4.297873347159628 0.990089237613397
20.171257849078419 8.289291377815891 1.142912612433407
11.418656979718783 4.694777474160394 0.215502314687577
10.639152562964364 4.350424714403214 -0.200632864403011
9.406569408603097 3.850245825810086 -0.532675362640682
8.248453512332452 3.379574245900989 -0.779869586106045
7.479279108625596 3.065951069222821 -0.992503932691521
6.383481429251217 2.619358157369430 -1.092851172771053
nan nan nan
nan nan nan
nan nan nan
10.467240588689656 4.235416337214222 3.025594637248467
9.704726796975676 3.930819040625950 2.417324029979174
40.545281618367454 16.439007019818263 8.504356923932601
11.764638672517142 4.772341314750772 2.010808613627128
9.922725986869754 4.029201201511817 1.314970215341541
21.285120411620031 8.651647336390763 2.010160050731988
12.819509309164889 5.213283615926003 0.725271681614716
11.873927161582946 4.833576586782903 0.223774755338849
10.622763010200345 4.300503951227900 -0.200039482584144
9.403292589968295 3.810636186873653 -0.531733315428309
8.212197224155076 3.331288719412201 -0.775337487483167
7.484417583214420 3.037585277587608 -0.991772716631090
6.418207391550276 2.607468747735281 -1.097231337792179
nan nan nan
nan nan nan
nan nan nan
10.471529515320301 4.198916721298113 3.023006446797442
12.403507335193648 4.976122161013479 3.085428661380452
11.082216688332844 4.450529606585147 2.321382237751044
nan nan nan
10.842154725942384 4.360716522911583 1.434889649252207
10.194791198950156 4.104481699030569 0.961502153992165
10.996312810806049 4.431640162005442 0.621332472516229
11.557915796458296 4.660317643245360 0.217526793834302
10.583140425901886 4.243670920580527 -0.199027243010781
9.386221105634148 3.767529067439291 -0.530058564828535
8.145551909124435 3.272839577074967 -0.768016405092364
7.477872861664669 3.006085616223378 -0.989579068449798
6.421321073631880 2.583958574993691 -1.096292731001938
nan nan nan
nan nan nan
nan nan nan
10.459189139509807 4.151647742346025 3.015241875444367
11.346795349108687 4.506264794400229 2.818636710928629
12.340085058540843 4.905727310855422 2.581264089453898
12.609982997373216 5.015572489140190 2.149409549652772
9.839264660104590 3.917508328520636 1.300345894132924
10.279387104032590 4.096900881407941 0.968125990440987
9.859714607146794 3.933627263097734 0.556331214862493
11.895409706577974 4.748194020620330 0.223565326461602
10.545847579653543 4.186045754713820 -0.198049908250293
9.369617374344116 3.722941955396289 -0.528383814228761
8.127305466859299 3.232604652909487 -0.765227421324439
7.486476086998268 2.979230673191632 -0.989335329762987
6.413785465654677 2.554948971403000 -1.093476910631214
nan nan nan
nan nan nan
nan nan nan
9.389395695284369 3.689119386981185 2.703106107050727
nan nan nan
12.380033221373159 4.874128952862713 2.586225123333688
11.511971567784620 4.537007334459039 1.959810978024012
16.984198138530264 6.697103026853334 2.241664702594283
nan nan nan
9.882673687113757 3.902854567745440 0.556854574424922
11.860879197028400 4.688871902648512 0.222622896513988
10.535477204969842 4.141540755174593 -0.197596145682924
9.341023690204114 3.675761032310616 -0.526081032154071
8.123150450732496 3.199794057539771 -0.763832929440476
7.475999193545590 2.946381770820648 -0.986654204208074
6.311969966094238 2.490169631589316 -1.074704774826386
nan nan nan
nan nan nan
nan nan nan
9.515647481058604 3.700432925194166 2.735717306733644
nan nan nan
11.701848584447440 4.560007460745580 2.441210286847515
9.820593843224300 3.828889541840218 1.669468610909344
10.104254273704672 3.943547870044254 1.331788184731452
12.251899209379021 4.786672219137462 1.150804427240079
nan nan nan
10.005653297046400 3.915130331491717 0.187543559575049
10.477189087008457 4.076461298183040 -0.196234857980816
9.329603517363420 3.633709236910698 -0.524720297291755
8.108282243262485 3.161287146086019 -0.761392568643542
7.467744766865398 2.913053613207222 -0.984216817339971
6.280142392035684 2.452314099311868 -1.067821658364616
nan nan nan
nan nan nan
nan nan nan
15.944416462586791 6.133262983016182 4.577473631683182
nan nan nan
12.115999406570646 4.670316734286567 2.524021390840935
11.409608463519572 4.402601496691762 1.936971546128138
9.911230328632193 3.826413025657477 1.304489451808699
12.373433078080557 4.781955324201602 1.160565870427816
10.146245358908644 3.925286292821723 0.570147907310630
11.968722820435033 4.632751395806634 0.224019089028971
10.477129688197126 4.032287054748642 -0.195955619477819
9.288811004741795 3.578667220529730 -0.521684811829664
8.091930499819791 3.120793631446980 -0.758777896361112
7.467259489411336 2.881375632597905 -0.982754385219109
6.285403017400157 2.427856209934117 -1.067195920504455
nan nan nan
nan nan nan
nan nan nan
15.911564452067232 6.056950979428728 4.561944488977031
16.762366108132525 6.387519992819939 4.141348910470555
9.800800486076547 3.738642308298712 2.038984924593758
12.486015196496920 4.767945565568012 2.116871180924404
12.383405973246974 4.731239551413645 1.627686950519150
10.415606626759477 3.983583501204277 0.975621384317286
9.451099517497575 3.618477419598043 0.530372580565993
11.081011084115204 4.244728085752686 0.207125159597681
10.461241227252929 3.984302692057606 -0.195397142471826
9.297513851591354 3.544798374482842 -0.521475468004692
8.115804765495747 3.097501562820956 -0.759998076759579
7.467999463682543 2.851751689083270 -0.981535691785058
nan nan nan
nan nan nan
nan nan nan
nan nan nan
9.480942685459205 3.574987666066503 2.715011783125443
16.785279020309112 6.332586738962835 4.141798812579243
11.545091819037870 4.360224106359250 2.398850689873921
9.598969973878969 3.629063173457170 1.625354091767999
12.460298264919853 4.713325518778240 1.635730327183889
16.499314715343704 6.247738359383407 1.543528204061026
9.442503434442193 3.579329242064953 0.529221189528648
11.964454422321623 4.537702779954063 0.223355897584354
10.463169554877872 3.945356843472914 -0.195187713594579
9.283057720197766 3.504072616213361 -0.520010061229890
8.127895596151514 3.071275812787022 -0.760172388245074
7.460703769214724 2.820653192020459 -0.979342043603765
nan nan nan
nan nan nan
nan nan nan
nan nan nan
12.296018998794436 4.585066821419312 3.516315546762847
16.993501764057459 6.343470349707840 4.187688827665391
10.372217958522214 3.875950167554354 2.152325467847425
9.957559139352922 3.724959802160214 1.683860581693045
9.764192628020009 3.654567336464527 1.280115583127669
10.823089066522769 4.055201621407011 1.011180927358330
9.385748487477596 3.520394645955775 0.525348328766670
12.043875939906355 4.519799656780831 0.224542661222090
10.403809322233174 3.881548518728044 -0.193826425892471
9.274651428933627 3.463960529819222 -0.518858670192545
8.140433047230106 3.043583200731140 -0.760346699730570
7.481659789456928 2.798766402403363 -0.980804475724627
nan nan nan
nan nan nan
nan nan nan
nan nan nan
10.773181893384809 3.974436630916581 3.076840808178766
9.707600523467152 3.583247925345415 2.388980197131847
10.318216926796715 3.812730288694825 2.138205602189561
10.056368377352566 3.719963619041123 1.698252552476746
10.285759216965866 3.806858848106815 1.346656244626880
9.713176200711416 3.598795818768608 0.906245413090150
9.384214826296395 3.478776272428604 0.524510953466783
12.230964519751772 4.538937648170497 0.227718999193675
10.376691896795649 3.828163748695631 -0.193058520009230
9.261055206604635 3.420256813631275 -0.517393263417743
8.138452335525621 3.008890245592938 -0.759126519332103
7.463940586677036 2.760995460314729 -0.977148395422473
nan nan nan
nan nan nan
nan nan nan
nan nan nan
10.863901741388313 3.962728223361564 3.098581607967378
17.144629243650392 6.260474715451118 4.213783149969279
11.389870927956196 4.163593192600133 2.357254328881835
9.845457994568600 3.600977638531485 1.660395411937011
9.389318967061763 3.437861130952910 1.227711765463456
9.680782782517024 3.548412177121911 0.902061937438262
nan nan nan
16.130622931401327 5.922131171020203 0.299937057031154
10.341150426209380 3.774094044625584 -0.192150994874491
9.241046157470452 3.376257141061285 -0.515613840905483
8.118967165806611 2.969513376439122 -0.756337535564178
7.456755087560712 2.728784858681482 -0.974954747241180
6.308269375342643 2.310995979138160 -1.064067231203651
nan nan nan
nan nan nan
nan nan nan
17.748024203524551 6.410684501949970 5.056288865122846
17.124975525136449 6.189014914979374 4.203885303578149
nan nan nan
13.053145579427675 4.727749638526323 2.198842840605485
9.424929895508356 3.415498497065986 1.230880368391990
9.675639997431123 3.510174747160890 0.900493134068804
10.680557126820313 3.876852951131696 0.595478510132215
10.545632399960901 3.832044324885898 0.195850905039196
10.317874387236520 3.726873294109446 -0.191487803429875
9.214626695622529 3.332010752740285 -0.513520402655765
8.121276105811463 2.939860909273683 -0.755640289622196
7.450831538345622 2.698634279207858 -0.973004837746697
nan nan nan
nan nan nan
nan nan nan
nan nan nan
10.142870843233689 3.621690584309398 2.885832352893106
10.993635600555848 3.929798430755194 2.695363533148191
10.458595940988246 3.742660238172815 2.159194591680981
10.593187037579465 3.792910082672654 1.782101425738310
9.440532134744007 3.383918178869038 1.231367845765610
10.396699737782463 3.730748276173049 0.966382875586034
10.477850981217133 3.761932898743053 0.583441240196338
10.573999118106014 3.800620951514018 0.196130143542192
10.302573875975835 3.680742885946866 -0.190964231236756
9.149097030164706 3.272248387063071 -0.509228854243843
8.133364433792067 2.912166079721187 -0.755814601107692
7.445255823996442 2.667253651523255 -0.971054928252215
nan nan nan
nan nan nan
nan nan nan
nan nan nan
11.785788102898428 4.161995247971564 3.349118443626618
10.759913896001187 3.801833616409166 2.634626748475347
10.425971386372215 3.687934885638272 2.149654141912154
10.490913761952834 3.715027405925396 1.762703552073322
10.128343807083633 3.588624176731321 1.319357511704127
12.596016912693123 4.467907210117844 1.169281444702582
10.497215476960575 3.725508425896930 0.583755255933795
10.646271236363221 3.782593833974157 0.197212192741304
10.299025073886787 3.636964540853684 -0.190650087920885
9.127134101684337 3.226710458741989 -0.507344759819098
8.125201176216134 2.875688793947730 -0.754071486252739
7.430655794194896 2.631333222807259 -0.967886325323681
nan nan nan
nan nan nan
nan nan nan
nan nan nan
11.862977751536095 4.140414452823680 3.366718138693590
11.440920153999976 3.997588647321626 2.797941213928993
nan nan nan
15.199210911090727 5.319710056076827 2.550507518015924
11.931795834306561 4.180793499440924 1.552371696294768
12.197919810303844 4.278822155292473 1.130932917893612
9.827947536795174 3.449402800736051 0.545864023613904
10.851845460190743 3.813024589213238 0.200772483654510
10.154962795766940 3.546271765095924 -0.187752988452296
9.113832132400121 3.186262391724763 -0.505984024956781
8.133309167956716 2.846650844116504 -0.753897174767243
7.424807335096523 2.600130550043956 -0.965936415829199
nan nan nan
nan nan nan
nan nan nan
nan nan nan
13.189574069057340 4.554413159076026 3.738899925551014
10.854343744377012 3.750169154534175 2.651273126496793
18.652328251477723 6.451657027699164 3.836405661040810
10.296331333692448 3.565424397929666 1.725785018323827
15.103115583473439 5.232874934811670 1.962583906196495
9.398646330989331 3.260085308903632 0.870337247078115
9.768227983725208 3.390191305650036 0.541886490939440
10.874533905356046 3.778402922049296 0.200947007718882
10.089782335328771 3.484042562681363 -0.186321891124439
9.081482795617788 3.139421104291146 -0.503576570969606
8.122485263403917 2.811075168639606 -0.751979748426795
7.413204331075964 2.567052159866480 -0.963255290274286
nan nan nan
nan nan nan
nan nan nan
nan nan nan
12.279204351734579 4.189750390925337 3.476457413817059
12.128742629853974 4.143138992543511 2.959006168839200
13.047979642727274 4.462234043233183 2.680484767049701
nan nan nan
14.965419488113390 5.126726641439308 1.942353595191241
11.466102692305411 3.932433000506017 1.060511077753505
9.424846864042863 3.234199161318414 0.522208171392094
13.185468612403570 4.529826835059537 0.243356355361481
10.118914466626039 3.454616188197277 -0.186636034440310
9.007339870809298 3.078633598144615 -0.498866334907741
8.105857099310890 2.773674709107517 -0.749539387629860
7.425875985081214 2.542445620264169 -0.963742767647906
nan nan nan
nan nan nan
nan nan nan
nan nan nan
10.495568369670082 3.542348441252070 2.968136809235708
10.799022832392657 3.646866652526974 2.631477433714533
13.031859070132739 4.405971382482765 2.673997261206899
10.676480023175698 3.613789112702584 1.785230115039115
nan nan nan
12.111863380391233 4.106709157435036 1.118905425394436
9.473906442735839 3.214113958218559 0.524301609641811
13.223921843664405 4.491490701106446 0.243775213115976
10.123332916443632 3.416715637856125 -0.186496415188812
8.966943129460725 3.029910731304986 -0.496040193270622
8.094729092292805 2.738340067520154 -0.747621961289412
7.382057140211584 2.498688487660366 -0.956918084417218
nan nan nan
nan nan nan
nan nan nan
nan nan nan
12.934172156872707 4.315166284387701 3.653489640667183
13.636145471189888 4.552007312890961 3.318927855789384
19.355676011944649 6.468806664135269 3.966919013878366
nan nan nan
nan nan nan
10.548727250067751 3.535697497735595 0.973355335005846
10.590933469448535 3.551900329846671 0.585430006533570
nan nan nan
10.125713247729690 3.378193508021595 -0.186321891124439
8.933894131459898 2.984038600047581 -0.493632739283446
8.106127907369883 2.710699371708922 -0.747796272774907
7.347436486952604 2.458417858873096 -0.951312094620581
nan nan nan
nan nan nan
nan nan nan
nan nan nan
10.123752246103388 3.338312842265601 2.856326981751419
12.208475865433570 4.028114204753320 2.968004211012955
17.786129759786785 5.875313230361956 3.641017249775228
nan nan nan
nan nan nan
