# This PCD file was generated using the MATLABÂ® pcwrite function
# from Computer Vision ToolboxÂ®.
# .PCD v.7 - Point Cloud Data file format
VERSION .7
FIELDS x y z
SIZE 8 8 8
TYPE F F F
COUNT 1 1 1
WIDTH 873
HEIGHT 1
VIEWPOINT 0 0 0 1 0 0 0
POINTS 873
DATA ascii
20.770237255335818 17.614442152224761 6.287381968911027
20.972625803979849 17.798669880340086 5.346849668441539
24.482111217448896 20.791741869110830 5.087248803108309
24.768314845271796 21.042245769820958 3.990489780458149
16.421256311741978 13.960765252339442 1.885701650088332
16.589793228647437 14.109038303562206 1.141342533746119
17.229464292348048 14.663423470642254 0.394913052862851
13.877452866213895 11.764772461031024 -0.317563987532811
9.703165214186784 8.231794471770487 -0.666864754447590
9.410840111779203 7.989447980108227 -1.080033964128980
8.382409489448619 7.118867028983367 -1.350312324929034
6.344495777638484 5.391956179343373 -1.318742540289146
5.114738169899448 4.349905737654965 -1.305133528375567
4.316230044629193 3.672100923684800 -1.308315332063919
3.636214325862319 3.095755439060491 -1.279601358986862
21.724355014750099 18.280648919223051 7.607727011743495
25.373555435587793 21.366517667696161 7.658233694082541
15.769589739315897 13.288638302816809 4.008515374870453
16.136488276728954 13.602631459935637 3.342691648979653
17.166994451773693 14.481574484863424 2.757659502571677
16.198891932441153 13.674592635684423 1.854674205670166
15.726424719718739 13.280452202857068 1.078748730079558
13.431598542493555 11.350580799918376 0.306952924418942
13.485491852564147 11.351816544750964 -0.307685925489308
9.745588119045275 8.209454688929116 -0.667806801659963
9.364027048675332 7.893626341717253 -1.071492701339710
8.376856973148845 7.063969496483390 -1.345437551192828
6.370826937415905 5.376146748655312 -1.320306884939549
5.134390918181495 4.335825490850171 -1.306278382347826
4.329021772964811 3.657012097475627 -1.308315332063919
3.630769823261252 3.069324775842942 -1.273907339994607
22.159600630237087 18.528302056409679 7.739724724745781
25.160260257293427 21.044705331450558 7.572752293431872
21.376321098117092 17.892404561470109 5.418593850703119
16.157941829745067 13.534112171200787 3.338311483958527
17.173840590422110 14.390143923614168 2.751078558027799
16.216668744789182 13.597757279955980 1.851536598931250
16.143749851511494 13.541413783290029 1.104288676726115
13.536556345147241 11.362546062142089 0.308488736185423
21.616955439921373 18.074580251427857 -0.491843718215524
9.800330111985204 8.200162181311866 -0.669690896084709
9.565825668742310 8.009625392603954 -1.091538522171671
8.432193300462199 7.062919967171573 -1.350556063615844
6.379536507757690 5.347377034384883 -1.318429671359066
5.151749123677233 4.321298783311091 -1.307041618329332
4.353067632044653 3.652657444538425 -1.311914548933421
3.624654150390861 3.043602678157335 -1.268213321002352
22.132220216496787 18.367998914508544 7.706595886972657
25.320516968318202 21.028964562422736 7.598846615735760
21.743640794580550 18.071158867283010 5.495680684835244
26.141519508671223 21.733954873280492 5.384474286684747
17.358254976258060 14.441834201186930 2.772527562467105
16.291595948576528 13.564014340863348 1.854674205670166
15.891656405921404 13.235730652583893 1.083877653791367
13.620683741438599 11.352353921619715 0.309500975758786
12.066963283552706 10.018185934882702 -0.273758447375229
10.216028005586947 8.487535615531170 -0.696068218031153
9.438988681305261 7.847537476956767 -1.073933062136644
8.485794338296580 7.057560653352191 -1.355187098665240
6.392090225780854 5.320021066350276 -1.317178195638744
5.168310440467104 4.304545931000046 -1.307423236320085
4.361299710745140 3.633697927232796 -1.310564842607358
3.651577782308900 3.044539996264769 -1.273907339994607
22.018413954313914 18.157035041162167 7.647067506599077
25.160113065848105 20.755151455034508 7.530011593106538
21.930625307472862 18.103941608053933 5.527736596058503
26.185302704988182 21.631592316697301 5.379468383803458
15.863606533408316 13.109531974570594 2.526838966162328
16.305778583373236 13.484520305434190 1.851187975960260
17.488225086100485 14.467517998583018 1.189491613489627
12.527640099652396 10.371133072162227 0.283880843108854
12.920883834015758 10.654942768529672 -0.292327807824499
11.045161292515669 9.114645651692097 -0.750497612523815
9.457278804049041 7.809850230932476 -1.073061504709167
8.438751941044139 6.971225183340390 -1.343975119071966
6.414264385483730 5.302570743353588 -1.318116802428985
5.178018271581339 4.283629251812131 -1.306278382347826
4.344800555580429 3.595609077545681 -1.302016702542291
3.688435464788573 3.054593568546689 -1.283224825618298
21.944144447210221 17.967470806342369 7.599444802300215
25.049991294672342 20.517786476873592 7.475573437955322
21.875252866748230 17.930204393033019 5.497970392779762
21.134982888342005 17.335774428498684 4.329480254453430
24.724053259246244 20.286895650986548 3.926873983200662
16.383545140359768 13.452807596357557 1.854674205670166
25.230671707726433 20.724707390416018 1.711176425319291
17.354155275387487 14.265011744110096 0.392120667832886
11.839355130302803 9.693851049029119 -0.267091628116187
10.670602194090296 8.743120769254718 -0.722968899540026
9.760266016788895 8.002918838322463 -1.104263260612829
8.455360512629778 6.935431333584757 -1.342756425637915
6.388455287356305 5.243802807667211 -1.309043603456652
5.173217438518195 4.249328710795080 -1.301317348468036
4.363347667552133 3.585369738157780 -1.303816310977042
3.681169542298578 3.026976076588539 -1.277013168535837
35.573172638012444 28.909533208427352 12.282516604385226
25.149218057459962 20.445504449988764 7.482771871694326
16.324265026081669 13.280568802360330 4.090563242882367
nan nan nan
24.804399229616600 20.201155451569026 3.927848937947904
16.706106324744219 13.615460114212905 1.885527338602837
19.513901460821653 15.909479219050899 1.319494128797100
19.797096649964793 16.151872434710704 0.445978794098343
13.782036891595229 11.200357563035864 -0.309989643139030
12.523268639708059 10.184644960367491 -0.845958396710944
9.608731467840009 7.819949102576585 -1.083868816809877
8.402212383996126 6.840476331818069 -1.330325752610590
6.470421767118006 5.271508191019705 -1.321871229589951
5.188757259317288 4.230339379111122 -1.301317348468036
4.370418735109221 3.564426543794559 -1.302016702542291
3.645843042177703 2.975596794055887 -1.260966387739481
25.709613236287382 20.737635027521765 8.850576066325798
24.333350640410380 19.641551865353655 7.219579138112004
21.902199478831928 17.691789666340380 5.472783605390059
21.147793960520413 17.088508833692394 4.306327953627476
19.425932124624271 15.708367297738411 3.067451373507562
17.077233696183711 13.819003909269650 1.921958439071358
19.488593200798139 15.775920528627736 1.314051189347834
15.533693815975020 12.583426835530581 0.348943414307047
13.589168334427715 10.965076550125859 -0.304788826020719
11.186636186279943 9.032926585888534 -0.753533097985905
9.603426163935060 7.760063916949495 -1.080208275614475
8.404425768345897 6.793634690214395 -1.326913410995246
6.490319151330494 5.250132429138658 -1.322184098520031
5.195862533685349 4.206025215085172 -1.299409258514270
4.434325767317488 3.590846204358901 -1.317313374237673
3.645701257931754 2.954338355140507 -1.257342921108046
27.328831807245834 21.902355186404577 9.384260937327198
25.480897200700213 20.428655547821108 7.539909439497667
22.006686923868362 17.655919472328662 5.484232145112651
21.158128251501608 16.981193224379464 4.296941885725062
22.150809357029477 17.790620264413981 3.488388085628942
17.029787514062033 13.687407714095100 1.911499749941639
16.921144368785363 13.604949368867818 1.137888360634085
12.418826414778200 9.992132136133350 0.278226263423174
13.647300788599461 10.937460895359370 -0.305277493400963
10.372056281330050 8.318504250935508 -0.696800921418554
9.621337492451365 7.721939724261190 -1.079336718186999
8.374278585194730 6.723472530618824 -1.318626295643696
6.526172548065874 5.243427781421834 -1.325938525680997
5.171530680733937 4.158017421133923 -1.289868808745443
4.426468378706628 3.560244116972767 -1.311464646824733
3.655478151661138 2.942232530149099 -1.257342921108046
25.627391415893744 20.392251457691472 8.775518543246069
21.621435596982298 17.210792489354183 6.380061803300699
20.910337129041753 16.656681127167420 5.196492180084822
21.532428703612108 17.158368221060012 4.360767147461476
25.448775569227564 20.293683262824977 3.996583247628407
19.575387011644168 15.621233127131484 2.191095372676126
26.049840933443843 20.795314811908266 1.746869547476979
20.245155565931494 16.173068970616413 0.452296565228639
11.865579890190265 9.441690138701485 -0.264683196027842
10.040111064650002 7.994851708769914 -0.672621709634314
9.701211501989008 7.730524105419961 -1.085263308693839
8.326293157956909 6.637280621907316 -1.307414316050422
6.485755125384612 5.173804629906337 -1.314049506337939
5.170670128591945 4.127691734752737 -1.286052628837912
4.441914518491912 3.547203258632315 -1.312364451042109
3.671762790764848 2.934278737816130 -1.259413473468866
25.780796339057940 20.360446101448254 8.802435723936730
21.669079934029906 17.119349813082053 6.375562782213822
21.787487975514104 17.225251964184135 5.398749715183959
21.530225004944501 17.034075507261203 4.348252390258257
25.772034988933907 20.397384415417726 4.035581437518053
19.788695652327995 15.673083135891869 2.208526521225658
20.102362747805813 15.932936382748684 1.344301372056255
20.254155039978976 16.059001979416927 0.451179611216653
11.937769244252728 9.427882058899037 -0.265520911536831
10.132025004867453 8.007535415998877 -0.676808586133750
9.707602080896201 7.677612408977649 -1.082822947896905
8.345893743585165 6.603023617781974 -1.306683099989991
6.537197876269526 5.175748389574838 -1.320619753869629
5.190380551947405 4.112370164055434 -1.287197482810171
4.467103552000110 3.540582647029247 -1.315963667911610
3.691574160694908 2.928004308081125 -1.262519302010096
25.730571060684035 20.168093975225275 8.759989400539919
21.705705771720051 17.025565658534916 6.368814250583506
21.177248090803428 16.622996594897671 5.233127507197119
28.357069689653873 22.266768746117027 5.710483711828587
17.333296049793809 13.620375365060719 2.706718117028326
16.460372427108634 12.943734597012153 1.832013712555775
20.163764405952865 15.861620217244804 1.344510715881227
20.332085642427707 16.005520584944883 0.451668278596897
14.140642198323485 11.087679783456649 -0.313654648490859
10.257334327522308 8.048560865285893 -0.683298244707875
9.668527868990907 7.592000038450939 -1.075501865506102
8.389185650323064 6.589791851096289 -1.309851702918525
6.552118777280911 5.150456225044739 -1.319994016009468
5.187730243723174 4.080875240297834 -1.282999684911887
4.493218154478629 3.535814030560869 -1.320012786889800
3.634991672415315 2.862511532720275 -1.239743226041074
26.529985876146309 20.660468011966231 9.010008598108952
25.835895185620377 20.127183451373195 7.561054838605991
25.700737180016176 20.036309869309932 6.334477028510534
27.162802514397221 21.183760058979470 5.455808402743092
25.720922904226246 20.073708163339667 4.006089056414008
20.183843548621645 15.763674571182582 2.240599834556796
16.136176221790134 12.611498547719620 1.073305790630292
11.752123146227127 9.188373014510482 0.260389904044270
11.722410485124328 9.128933878129482 -0.259342759658033
9.679028629513214 7.543060767222858 -0.643104230313294
9.688937405178828 7.556220500774576 -1.074978931049616
8.423513076347962 6.571704495963396 -1.311801612413007
6.548920727420624 5.112897238725346 -1.315926719918422
5.224440373085062 4.081780170032751 -1.288723954773184
4.474210255972346 3.496893896658719 -1.311014744716045
3.620116965640430 2.831399109924676 -1.231461016597794
26.513300162243233 20.499199724144194 8.979985588877058
25.984609887471979 20.097681242608672 7.583999846149064
25.506589508578308 19.742192045910731 6.269601970082510
21.594964148664243 16.720607748673523 4.325725827292464
22.382604778585883 17.342964668849337 3.476688628662048
20.226149998092140 15.683356773599932 2.239205342672834
25.947490606045733 20.134191317091425 1.721224928917936
11.818877066666870 9.174270405941273 0.261157809927510
11.749459016358937 9.084289980995353 -0.259238045219409
10.630968105409211 8.225440939622839 -0.704441971030024
9.647513963178078 7.469903428301331 -1.067483537173317
8.364793545119358 6.479050660701290 -1.299127200698872
6.494909460753368 5.034337929997471 -1.301534749134721
5.252618093240749 4.074348234295336 -1.292158516689961
4.494087426662701 3.487228010522106 -1.313264255259484
3.671176074455543 2.850736097752470 -1.245437245033330
25.209188528127175 19.336701224227344 8.513076031512114
26.047276211073278 19.994001780654290 7.580850531388251
22.447793893427047 17.243479652312356 5.502168190678046
31.858047288380238 24.489739668727204 6.364379775696753
20.244534627294552 15.567887283967719 3.135698205814445
17.305552066724530 13.317448465616415 1.910453881028667
20.287610147746850 15.617923040914807 1.341789246156594
10.523342209441010 8.106990798502931 0.231872671925749
11.798540334921649 9.053338417743703 -0.259587093348155
11.361220026249311 8.724073279199406 -0.750706956348786
9.677987370697332 7.436921334153299 -1.067832160144308
8.317662168376570 6.393906673315125 -1.288158959792409
6.508620502579709 5.006885741448242 -1.300596142344479
5.239513892581610 4.033512284108618 -1.285289392856406
4.509926503590312 3.473110962378395 -1.314164059476860
3.742806866643042 2.884431182820359 -1.266142768641532
24.537263980048973 18.685619014867711 8.264092110123487
26.254856494398780 20.008083424973229 7.620891819061459
26.003136771781183 19.830606956176116 6.356610871974214
21.875824330810701 16.689060311420128 4.357951327090752
26.723667752190021 20.402240194993148 4.128202138505966
22.085717903256818 16.873593755003046 2.431645222659663
20.605847002119820 15.754359628586553 1.359374127454223
13.583785126147285 10.389345111155048 0.298505959703297
11.869838119056290 9.042393475455111 -0.260459713670019
11.002459216914232 8.387698837372378 -0.725062337789744
9.738737201198148 7.429679908288215 -1.071667012825205
8.357288810802196 6.378081185348846 -1.290840085347322
6.461692401993723 4.934977968610585 -1.287768516211180
5.273839555916846 4.030696487550741 -1.290250426736196
4.520474339620211 3.456163603992967 -1.313714157368172
3.712961288346351 2.840827488723626 -1.252684178296200
24.443470614520464 18.486451632260433 8.211810663012779
21.654779545517407 16.389266793947968 6.269835786672205
26.413061717238417 20.005044004711220 6.440566829939893
21.891938080396653 16.592809257047392 4.350755341698902
26.897158594723830 20.393866058322793 4.144532630522256
22.312969783634163 16.930328643702115 2.450470863093157
19.918317435673167 15.124305855689490 1.310701688148285
25.685332685011776 19.510363896780468 0.563014631666766
13.956940029081583 10.559380605174589 -0.305486922278211
10.734036102218127 8.126926292497330 -0.705593362067369
9.712503813000062 7.358841473355253 -1.066089045289355
8.326186582912475 6.310762679004925 -1.282796708682582
6.490612757480873 4.923073183712601 -1.290271467651824
5.251209640464056 3.985885060609732 -1.281473212948875
4.547430777605941 3.452938942267828 -1.318213178455049
3.783888031315081 2.875251299200522 -1.273389701904402
24.642255330311752 18.501928655172023 8.256845176860617
27.368842495119850 20.564051285815555 7.903430343317353
21.731311704878586 16.340066687119329 5.285027553939538
21.970244082167937 16.531731269390907 4.354822637789947
27.017348311209091 20.336861878652751 4.152088529813375
20.029387725198760 15.087746113459337 2.193884356444051
19.218210084777510 14.487219614604435 1.261296545454946
27.049725426176238 20.398237837255280 0.591357339720915
10.691952272647988 8.030663302564617 -0.233408483692230
10.486135941010255 7.881802664033879 -0.687485121207310
9.774753281239107 7.352439874832362 -1.070098209455747
8.316440552679291 6.257789390985789 -1.277921934946376
6.461995342444057 4.865927166590556 -1.281198268679491
5.290177778068177 3.986434890427076 -1.287579100800924
4.410067757254599 3.324431350932080 -1.275022576021027
3.781563587603702 2.852718147917773 -1.269248597182762
24.404651222054817 18.190666401725711 8.155905749270634
28.739134171298112 21.429294143960895 8.276399191419481
21.800495928060961 16.267352380236325 5.287317261884056
22.057595564038607 16.471187838816736 4.360141409601315
23.087190131669040 17.246299752128223 3.538354516425052
21.977153794538406 16.429049923047806 2.400617778241497
19.368734661622550 14.489664769786486 1.267681532116586
14.511552284656497 10.859978809458203 0.316377223895075
11.535794295687639 8.598516069844322 -0.251140128632510
10.495742515390727 7.828986060162745 -0.686229058257479
9.737770959962777 7.268891550361456 -1.063125750035934
8.288422628596308 6.189258734332916 -1.270122296968447
6.451303875271014 4.820925646243049 -1.275566627938042
5.322047949778471 3.979952017832103 -1.291776898699208
4.528331165875096 3.387624525112368 -1.305615919411792
3.785807961546865 2.834207804838878 -1.267178044821941
24.488243886166835 18.113733921925199 8.161599768262889
27.516860086010436 20.368838554833953 7.903880245426041
21.327085324037075 15.798500834964216 5.159093616991019
25.145924112312620 18.640986196256069 4.957721066054996
28.200197613628429 20.912784748912788 4.310762414926876
22.139964001286099 16.430600593300134 2.412122336284188
27.027491653638140 20.072386725249729 1.764349756862122
14.538135999685178 10.800910038065709 0.316132890204954
11.588243001990222 8.574848749444035 -0.251628796012754
10.500535494436685 7.775661326966563 -0.684763651482677
9.430125030491157 6.988118920434189 -1.026868961052908
8.282866793834675 6.140192139277875 -1.265978739292672
6.496649443500406 4.819561910028602 -1.281198268679491
5.351671543064096 3.973053016236288 -1.295593078606739
4.566724798795456 3.391549145733312 -1.313264255259484
3.874754756273269 2.879745926997056 -1.293577587422399
23.206099539846292 17.046574811577550 7.715395734506144
21.631480419533510 15.895715426567941 6.197401547173481
21.954653756072226 16.145001639376201 5.297239329643637
25.163110375806795 18.517971837137640 4.948334998152583
31.753200077418718 23.376278268047731 4.841381536112888
21.985444785265130 16.197225059099768 2.389113220198805
nan nan nan
9.631871656969139 7.103823404139123 0.208905305054284
11.734140207478145 8.619582905470946 -0.254141942539722
10.495428950070584 7.715300936061063 -0.682670213232959
9.786674782232630 7.199551857309968 -1.062951438550439
8.289860259372540 6.100652762087059 -1.263785091111379
6.521386184271599 4.802711974856974 -1.282762613329893
5.303871313560172 3.908922491440543 -1.280709976967369
4.595789509843009 3.388308250051108 -1.318213178455049
3.889446944586016 2.869643784311027 -1.295130501693014
23.251250221454487 16.948888063737837 7.709701715513888
21.787594195661814 15.893612411089935 6.226195282129495
21.934763752108640 16.012703743668432 5.278921666087489
25.235598934088483 18.429115041728092 4.949273604942825
26.872618593504829 19.638988390388008 4.086766561748215
22.045066088632375 16.122735166461876 2.389461843169796
31.667675318976645 23.168748069788890 2.056384392697749
9.540440203800358 6.985104079010436 0.206392158527315
11.688217196974323 8.523194576630452 -0.252501416334618
11.070836880288988 8.078913990281848 -0.718258663478161
9.649236219611305 7.046667876616790 -1.045345978515412
8.304693354054667 6.066994548754451 -1.262810136364138
6.501433838794189 4.753104650380909 -1.275566627938042
5.311145803567354 3.885747780514537 -1.279183505004356
4.569847571070958 3.344622820995308 -1.307415527846543
3.833981946525798 2.808106319354391 -1.273389701904402
24.814300556370483 17.969159087005124 8.209222472561752
24.238985274875873 17.558996964155501 6.910046487334845
23.384925739863075 16.952756187844383 5.614363879959455
25.693101957362202 18.639739582081525 5.027490837462939
32.056173102335386 23.264538247934926 4.863318017925815
22.723897319407289 16.503818959698901 2.457094699541979
36.263770369377951 26.347171399173757 2.349151731920777
15.633567693940829 11.366791684552487 0.337389921245565
11.763386186826889 8.518400803310357 -0.253513655907980
11.212391373846724 8.125368248125378 -0.725690369264659
9.732227992554868 7.057909642365318 -1.051795503478739
8.319946208159132 6.035924775232333 -1.262078920303707
6.505970325174238 4.723395209116787 -1.273376545427479
5.360533246459626 3.894655376339561 -1.287960718791678
4.582489977399762 3.330595986330187 -1.307865429955231
3.808902149026389 2.770377631191385 -1.262001663919891
25.082372556477189 18.023513075450143 8.275997786198204
26.472411886246412 19.036373156492935 7.527762082563098
23.171466430071206 16.674929586768755 5.549107203540676
25.515963301751867 18.368865141993012 4.979621891160629
29.637466207534743 21.351633583388516 4.485035575996237
nan nan nan
36.405735270831954 26.256644374499178 2.352396561207839
15.639099040891107 11.287574730972862 0.336656920175199
11.843384483987156 8.513469856139348 -0.254595705107092
11.380120334346715 8.186484753239545 -0.734692153738445
9.452814780346644 6.805052894103523 -1.019024944205619
8.287806884526567 5.968563637935358 -1.254035543638968
6.450303223430124 4.648683499058127 -1.259297443573859
5.394795692155892 3.890849365031390 -1.292921752671468
4.608311191585949 3.324841677102913 -1.311914548933421
3.837344523339084 2.770635663820079 -1.268213321002352
25.140430213678339 17.939115724846630 8.275480148107999
24.608410813210135 17.565972487039005 6.980231216290131
25.785562891797721 18.419837558441596 6.159695988745620
27.309063688857375 19.522546357326210 5.316894597787367
18.738418208391344 13.400555064104854 2.828587460433473
17.407597864132004 12.458021151912311 1.872802600161679
14.299081115295634 10.237136611011575 0.921636189438241
15.545109863395089 11.137415158652933 0.333794725519484
11.713507411166617 8.358248574379591 -0.251175033445384
11.187573841410765 7.988860343021232 -0.720456773640365
9.622403494348395 6.876271085793280 -1.034712977900198
8.276292839326999 5.916508616459588 -1.249160769902762
6.480950093830691 4.636483580284859 -1.262113263944583
5.385995893378933 3.855994332942667 -1.287579100800924
4.608798711013470 3.300792632562928 -1.308765234172607
3.828150056134794 2.743719181690905 -1.262001663919891
25.242274601561206 17.872526657988619 8.287385824182715
24.462871480712280 17.333501657694995 6.921743942160726
26.061100142300614 18.479616105026615 6.210069563525027
26.735961002349757 18.965165332825222 5.191747025755182
18.619972723269136 13.217858058712221 2.803726114378823
28.479658937148759 20.231960035334048 3.056377586674877
14.290771698462910 10.155922821608641 0.918810047801122
15.543151920167080 11.054110875980813 0.332922105197620
nan nan nan
10.772186048975854 7.635603910853912 -0.691986013444203
9.698349410284102 6.879528287963195 -1.040290945436048
8.259660041149759 5.861160594413803 -1.243554780106125
6.518032546740984 4.628701168687940 -1.266180560035629
5.370617554442438 3.816699233475303 -1.280709976967369
4.596468421148423 3.267747627906144 -1.302016702542291
3.812518183991610 2.712421174191094 -1.253719454476611
24.537943793881535 17.245555740374215 8.036331350433269
23.643069890024655 16.622793336081447 6.672498173947724
27.960696881508785 19.672986578596220 6.645495690974303
19.674288814506887 13.852987131842953 3.811056437310105
18.960416699032457 13.355288618745686 2.847599078004676
27.299698333478876 19.243550842476829 2.922157742843483
20.801406381125350 14.668341545808142 1.333938852720152
10.680409983849291 7.536992488233138 0.228172761761045
12.350543099611443 8.680107071618291 -0.263496432390106
11.463363903244767 8.062566528328714 -0.734482809913474
9.671362276149841 6.807239144971376 -1.034712977900198
8.235639822209324 5.798848108574878 -1.236730096875436
6.536568569207810 4.605918120682484 -1.266493428965709
5.330018716466747 3.758521589656791 -1.267734965281764
4.587713201626268 3.236275661910331 -1.296167975129350
3.801917315760412 2.683945652713608 -1.246990159303945
24.631094587067839 17.176499309033485 8.046166474147165
23.824001480735852 16.626036025780937 6.707140636316678
nan nan nan
19.745981555182947 13.795491557795767 3.815123733401151
18.894664645580484 13.210537848481446 2.830781108614766
17.911446089163501 12.532414142965017 1.912545618854611
18.687711371066491 13.080416204813593 1.195457912501323
15.150152797896418 10.612192302914330 0.322869519089745
12.362726490729292 8.624357456563285 -0.263112479448486
11.530741436657360 8.049941887090785 -0.736994935813135
9.618301567075514 6.719807657983740 -1.026520338081918
7.590353469727691 5.304957306907011 -1.137040973970026
6.526706770758880 4.564958263781127 -1.261487526084422
5.351147934579937 3.745522432789993 -1.269643055235529
4.602174590848636 3.222477340669402 -1.297067779346726
3.795441938404470 2.659571964052060 -1.241813778401895
27.195670582403068 18.838198273371518 8.864552294761335
24.599795394264529 17.046413041744376 6.909596585226158
28.952232003844703 20.077393960982914 6.848516462054946
19.784355259409793 13.730011026558001 3.814185126610909
18.930215228748025 13.142147919266201 2.829562415180714
17.965996568173441 12.482043124620510 1.913940110738573
18.261931199212039 12.692372825281398 1.165521745530359
11.788687326413010 8.199455406613382 0.250651461252266
12.277833029472765 8.504745351865493 -0.260704047360141
10.987793243086987 7.616823478205121 -0.700673782180532
9.630710123727788 6.681061339773030 -1.025474469168946
8.077587689017102 5.605710501253025 -1.207237715771391
6.561278500972362 4.556811520397316 -1.265241953245387
5.337745115802234 3.709829498153512 -1.263537167383480
4.592035246827307 3.192736389340482 -1.291219051933785
3.835955747307566 2.669038489847345 -1.252166540205995
24.362415240998516 16.750085369950241 7.921933332497955
24.521065084474483 16.865466716063239 6.870905003879013
25.389924170799127 17.476122202176470 5.991402454823508
25.008597927732854 17.226520366592091 4.809734062126939
18.295984426943267 12.607420592904493 2.728167121467632
18.071785387772007 12.462235073335526 1.920563947187395
18.192687446595507 12.550294419196325 1.158299383568833
15.738762589410181 10.865555389951073 0.333829630332359
12.172325432257288 8.368935843356454 -0.257841852704427
9.882278121889577 6.799522802862550 -0.628659506390241
9.598178881444808 6.608985420085484 -1.019547878662105
8.097106058883206 5.577480306448061 -1.207237715771391
6.544616851245291 4.511457869824920 -1.258984574643778
5.313493718408590 3.665533789679729 -1.254759953596159
4.563054857512640 3.149016247738892 -1.279971499216592
3.897705951194612 2.691860382072536 -1.269248597182762
24.435377284639983 16.681185855124465 7.927627351490210
24.523752065016811 16.747791918386625 6.856058234292318
25.554715227924095 17.464942241822285 6.016589242213211
26.648714692233558 18.219442180606574 5.112904055374905
nan nan nan
17.866420176023428 12.233393211771597 1.894417224363098
18.178181565715043 12.451521403127414 1.154740538544313
23.335483288309355 15.996092159655896 0.493833292549374
12.195056241548178 8.325142571333863 -0.257737138265803
10.706256847993675 7.314270927985484 -0.679530055858383
9.534516185938823 6.518647085834749 -1.010483681416349
8.161435506122629 5.581976976907926 -1.214062399002079
6.535089829315433 4.472994260417182 -1.254291540692571
5.249493289966652 3.595748992785593 -1.236823908030763
4.608838324731316 3.158101069907254 -1.289869345607722
3.879526064096445 2.660347057717079 -1.260448749649276
25.310498600451396 17.142939105992529 8.191105139404577
24.449788986815740 16.572428488300730 6.819166261379924
19.410672334994864 13.166731591840739 4.559190135527162
24.858547186653375 16.868493425417466 4.758110688663662
18.837913253103949 12.792622225606875 2.795926476400894
20.166591034389679 13.705201114552256 2.133223959491681
18.616290612874998 12.656368394666423 1.179757125628440
13.967251266510145 9.502828857022148 0.294875859164342
10.076888455961393 6.827697519416204 -0.212465595967489
10.949928284607321 7.424812782055138 -0.693346748306520
9.547320535113004 6.478613270021446 -1.009437812503377
8.136525307084485 5.523351198711992 -1.207481454458201
6.547395700170202 4.447935206385242 -1.253665802832410
5.218176237587206 3.547600442245068 -1.226520222280430
4.587606422950879 3.120075642054084 -1.280871303433967
3.852056887177970 2.621788307887150 -1.248543073574560
11.511749041826848 7.741408530219807 3.717159125762403
24.441195335297856 16.442384204368164 6.800720274923727
24.435050162401968 16.450642659511306 5.725796333259356
25.025414299312683 16.854447355119742 4.778760038048973
19.884930093040790 13.402457973691387 2.944363336668363
18.427097798861066 12.429234406020122 1.944618932185749
16.715016933286243 11.278666370604212 1.056767628457522
15.488535962339471 10.458953007173099 0.326220381125703
12.725803004870084 8.557834224656123 -0.267685009935055
10.878017690502787 7.320753171424081 -0.687171105469852
9.490554882525402 6.391824555839310 -1.001070861199602
8.112952105682925 5.466076895264774 -1.201144248601133
6.551417022728232 4.417323116521098 -1.251475720321847
5.183332703147568 3.497518457802112 -1.215453300548590
4.579087190495859 3.090959472295034 -1.275472478129715
3.795551423629356 2.563988928310236 -1.227319911876153
11.484068985422766 7.664714969051584 3.699559430695432
24.561648207707819 16.399170096073018 6.818266457162549
24.585370776590977 16.427419558243496 5.747548558732283
25.024972968288534 16.727470777513261 4.767496756566076
18.395473680765836 12.305399533186488 2.717442619247979
29.096298990796587 19.478274449582575 3.063350046094690
30.562962233086505 20.467845611100195 1.927742612252593
15.666146475380520 10.499454001988871 0.329187290220042
12.690730461451356 8.470066825578570 -0.266323722232946
10.539778619160343 7.039794408304560 -0.664247956635443
9.431644211223020 6.304404529309864 -0.992529598410331
8.128682530138320 5.435517237754802 -1.200656771227513
6.484711488886433 4.339497147930229 -1.235832273817824
5.215084661231601 3.492513156311469 -1.220032716437627
4.549373898438380 3.047840624142490 -1.264224925412521
3.820524172017295 2.561482371463749 -1.232496292778204
25.063062137838489 16.588878948385723 8.053413407410035
24.224724886010819 16.040076600998972 6.707590538425367
24.919935504428278 16.512916302793791 5.810897145197296
18.971805957731462 12.580987293267164 3.605501550247241
30.708421440951831 20.371738719683261 4.524764981946316
18.481195405613999 12.269580169518946 1.940784079504852
18.547024889972704 12.322613875192541 1.166987152305162
16.720571819012161 11.113328341363477 0.350444321260653
nan nan nan
10.933053973402480 7.241920105917470 -0.687275777382338
9.460763771236492 6.271445729002676 -0.993052532866817
7.992327005561810 5.300041794894706 -1.177501595980535
6.486512969153608 4.304735058808008 -1.233016453447100
5.174487418540513 3.436619594494043 -1.207439322742776
4.544811730321511 3.019565694251898 -1.259725904325644
3.801374644187885 2.527540389440592 -1.223178807154513
11.484748642033027 7.541200747347444 3.681442097538255
24.606284534307882 16.169456220239155 6.797570960162913
25.013511951125494 16.449560962698012 5.819292740993864
24.854819287511866 16.351415141515481 4.712118955941834
26.435352110196476 17.404435884999632 3.886169622503343
44.138618267358893 29.081955365183966 4.624483710190742
16.617627341918919 10.953145508204095 1.043055607921870
19.401684306966349 12.797912746470987 0.405698640041093
12.849416661893061 8.440489126341035 -0.268348201379671
10.541031142609368 6.929431645401799 -0.661107799260866
9.440985322563103 6.211007554247141 -0.988694745729434
8.033993754597276 5.287389395825101 -1.180913937595879
6.542742484127640 4.309230256743926 -1.240838176699111
5.166781447100738 3.405570953948754 -1.202859906853738
4.558578096103627 3.005828432343510 -1.260625708543019
3.818236401914976 2.519575767202186 -1.225766997605538
25.136561631356884 16.392570624320363 8.040990093245115
25.120028199056193 16.388038061482824 6.924443354812852
24.972576578207757 16.304272193579699 5.797158897530185
26.493311413187371 17.303736015485626 5.011847390958917
26.388239680789706 17.248253501927298 3.870814085234294
18.525933940370550 12.118414028425597 1.936774915338460
15.649329073162033 10.244535356652630 0.980252460430338
14.299875904707912 9.364707290505109 0.298366340451799
nan nan nan
10.918536844088944 7.125853822037845 -0.683298244707875
9.404814056532999 6.142622836795347 -0.982768155222593
8.033203254849360 5.248774800551813 -1.178232812040966
6.499130856216852 4.249672716971655 -1.229887764146295
5.164904069095742 3.379818517132012 -1.199806962927714
4.547324868620896 2.976819656419925 -1.254776981130079
3.828186572723099 2.507958842700402 -1.226284635695743
25.187141889250107 16.300529318582612 8.038919540884296
11.786164773597463 7.630649247100622 3.241544693095095
24.703103755790185 16.005629354412118 5.721598535361073
26.551893688955616 17.210077259120961 5.011534522028836
26.245107223841028 17.024241271565447 3.841077965443438
18.626612403055852 12.091642069824811 1.942875817330796
15.669920161270221 10.180053892488969 0.979310413217965
10.821456617266577 7.032907759710496 0.225275662292456
10.403488725634837 6.732894654479720 -0.216305125383692
11.617244987858093 7.524164275042747 -0.725376353527201
9.441245656291573 6.119509556288421 -0.984336958592051
8.069797478635145 5.232581669291518 -1.180913937595879
6.566951490753662 4.261369870666950 -1.239899569908870
5.191489083916847 3.371392431097590 -1.203241524844492
4.511931564233473 2.931202329712159 -1.242179722086823
3.823960572264475 2.486156618450435 -1.222143530974103
11.313423041070752 7.265877200565527 3.602761107827089
11.816322117138419 7.594683899822843 3.242894399421158
24.836952011602328 15.975664360099856 5.740297816907974
24.431586211787980 15.726983676725492 4.601989092553511
26.281389607108615 16.924218655261424 3.838153101201715
18.278068568565711 11.779411376238158 1.902435552695882
18.762163908349674 12.096024695303454 1.169917965854766
14.956437020339177 9.649853303818483 0.310687739396521
11.031418296918281 7.087483649982304 -0.228870858018536
10.620715640727770 6.828853561844836 -0.661735830735782
9.374361338530687 6.032105149583940 -0.975272761346295
8.078759148697397 5.200420151126259 -1.179695244161828
6.529567300567577 4.206406217870207 -1.230200633076376
5.233991627365421 3.374370477141433 -1.210492266668800
4.521626973309544 2.916224108719335 -1.242179722086823
3.817575868351756 2.464033538727070 -1.217484788162257
25.251452555397243 16.093146067843442 8.023390398178144
29.090998585658600 18.554431256262763 7.965966736424948
24.846229790146889 15.859293479350805 5.729612513166888
24.384175470889289 15.570355671222904 4.582278349958443
19.289795468959440 12.326853647238558 2.810794536296322
19.341277403863149 12.369262936320473 2.008591247362530
19.219363163681848 12.300750332387041 1.195876600151267
15.254431336076518 9.766873529350134 0.316167795017828
11.703572945185757 7.461742924899620 -0.242274306162370
10.701734618131132 6.828265018106624 -0.665294675760302
9.435662016294197 6.025080231338691 -0.979456236998182
8.081806634287192 5.162570630747327 -1.177501595980535
6.480965449286686 4.143156726096027 -1.218311613733318
5.272198710554258 3.373008403020438 -1.216598154520850
4.625336137256393 2.960301261972667 -1.267824142282023
3.853808714969792 2.468406040480262 -1.226284635695743
27.124168081314831 17.140561995094526 8.597451040215535
27.712655641650457 17.525984156945295 7.570052880779746
25.230430117085842 15.968512104578570 5.804028021363740
27.406517485365015 17.359174486692950 5.138246438711423
18.602541639590800 11.787322532960305 2.704036991473412
18.946104795988155 12.014288825854649 1.962747326677262
19.659370452642651 12.476215866816258 1.220265155760478
14.788733830400702 9.388836922030483 0.305766160781207
12.409934378000914 7.845234849161642 -0.256271136125071
10.641794773516004 6.732663777258756 -0.659956408223522
9.409909985247555 5.957896974884668 -0.974401203918818
8.081445899425955 5.118754309000304 -1.174576731738811
6.570236679732327 4.164774922138932 -1.232077846656858
5.318267517283296 3.373773297419108 -1.224230514335912
4.635023377725765 2.941475280073029 -1.267374240173335
3.879565829898700 2.463947389065427 -1.231461016597794
25.591332239030685 16.047189005131674 8.093789178446029
11.473596685189010 7.200164457873585 3.127269557488412
9.175720122863618 5.762615526487798 2.106149690966302
27.553913689168034 17.318063087462992 5.154515623075608
20.082089976603516 12.626795835628954 2.912677307383025
19.500567368522692 12.270658358352971 2.015738018267838
28.617904097918416 18.021656017899268 1.772409494123536
13.792715808363964 8.689098993687832 0.284544034553470
13.060630527412114 8.192918084983058 -0.269116107262912
10.787023020295459 6.771935007097841 -0.667492785922506
9.332800282315489 5.863537967136335 -0.964291137760090
8.057247101125265 5.064105055370767 -1.168483264568554
6.529555090286970 4.107107194815218 -1.221753171964203
5.343303583070787 3.363555578880706 -1.227283458261936
4.663401920808642 2.936700919901994 -1.272323163368901
3.860358851868705 2.432880021797466 -1.222661169064308
10.718920951488252 6.677133057797144 3.383800195670356
nan nan nan
33.648330133953245 20.985003374559582 7.708301795221658
19.790752787330540 12.352231039599182 3.694982064250253
19.938122587572650 12.449046628556980 2.886109790520703
28.494123265350183 17.805104338043858 2.939588891393015
28.720101342808160 17.960253820488017 1.775235635760655
14.598080109631143 9.132524381953790 0.300565343662897
12.551650366671945 7.818794445123747 -0.258121091207423
10.860785668803539 6.770768177087046 -0.670737615209568
9.324128984910921 5.817315212416503 -0.961502153992165
8.049540608945446 5.024052719610649 -1.165070922953210
6.606090794902327 4.126340673445826 -1.233642191307261
5.318884316044611 3.324898730271785 -1.219269480456121
4.679213869859463 2.926168949750886 -1.274122771803651
3.895821903576700 2.438163132403560 -1.231461016597794
27.304505057161197 16.870190064562255 8.600039230666560
29.355510593817314 18.151573254619795 7.968216246968387
25.150380538568367 15.563527718889357 5.749075030695295
24.660353798779724 15.272196983468225 4.594167369301500
20.754322461181449 12.858197596270978 2.997742109079817
37.168312307348856 23.045330005550113 3.826137106622193
19.153339743314287 11.884831791553509 1.181327204315728
14.583997320122734 9.053036632877927 0.299622913715283
10.801325599185020 6.676244344341015 -0.221645561753501
10.913229363389203 6.750677424972515 -0.672517037721828
9.244429463693832 5.722858082527388 -0.951217776347941
8.043401504164674 4.981291557739373 -1.161658581337866
6.586873368061855 4.082443111012938 -1.227384812705651
5.340468223755988 3.312521139598438 -1.221559188400640
4.648003062271225 2.884130668699781 -1.262875219086458
3.894462013454921 2.418434443546316 -1.228355188056564
37.726138793218304 23.127665633776633 11.857018094236679
11.171694946670771 6.851388691268970 3.025591680924984
35.733563443357028 21.931885384080299 8.149833810522983
24.759926857076081 15.208590950103398 4.602301961483592
10.482683451614641 6.441426253842057 1.510692380850208
28.664929299354139 17.627886426318280 2.944120990015893
20.086817213508283 12.357492400149710 1.235965942633361
14.601754943134845 8.990087143103741 0.299308770399412
12.491349650094735 7.657708084186872 -0.255747563931953
10.891933821200611 6.682432770951574 -0.669690896084709
9.268738458308395 5.691022120776036 -0.951566399318932
8.010860354289413 4.920608166173539 -1.154346420733557
6.532795475402948 4.015859822889766 -1.214557186572353
5.370967072622169 3.304240989296610 -1.225756986298924
4.636967699104742 2.853797287245581 -1.257026491673518
3.890140821734909 2.396039287081096 -1.224214083334923
27.185175781564137 16.528845955201135 8.524981707586829
11.238826577049929 6.838688169294310 3.037289135750866
34.533851753800150 21.029946759456827 7.859422519559880
24.899851913681438 15.169125053396487 4.617945407987615
10.484765340160370 6.392395237908247 1.507767516608485
28.899767713540008 17.633570993484003 2.961900761536415
20.779344885185328 12.683766289104151 1.275845941290485
nan nan nan
nan nan nan
10.913487475100968 6.643333607400211 -0.669586224172223
9.334488155542832 5.686620893639788 -0.956272809427305
7.987305307259714 4.867821409677162 -1.148496692250110
6.745773974396122 4.114406641036454 -1.251475720321847
5.353980769726293 3.268083819523195 -1.219269480456121
4.580374202230002 2.796969756230379 -1.239030407326008
3.949581454371081 2.413674237380088 -1.240260864131279
11.796787656187654 7.121894791143854 3.692312497432561
27.737412092844533 16.752091224323696 7.480972263259575
36.633062562474819 22.142100699077989 8.320417052389613
24.866254466755610 15.041749279560896 4.602927699343753
25.154052441396402 15.221837304707499 3.610013690347278
28.893323531544581 17.498418717059465 2.955276925087593
31.342116397807075 18.988937771095433 1.920520250291067
12.036164465760818 7.297976632672149 0.245694977824077
11.046972551610420 6.669220347622053 -0.225240757479581
10.803828632377254 6.527577620322939 -0.661526486910810
9.211784424052956 5.570068863971262 -0.941804956131194
7.977925939703958 4.825896152408726 -1.144840611947955
6.566738396622739 3.975391820564952 -1.215808662292674
5.366467808298163 3.251328722315977 -1.219651098446874
4.594623694257559 2.784795554762235 -1.240380113652072
3.909663374219738 2.371508445545156 -1.225249359515333
11.715075208346500 7.014105203473927 3.658666021569233
10.890612707428913 6.525644481922460 2.931112238100561
47.331030455520100 28.383165421141285 10.727663338060102
25.100775657013958 15.058227325393352 4.636091805932282
10.512716550632678 6.311683931627353 1.505573868427192
19.059171213923115 11.451905413750104 1.945316178127730
28.362907044747907 17.048892062184247 1.734308917978672
18.790613849903018 11.303934943055259 0.382766177982502
11.107926390196781 6.653224135263663 -0.226008663362821
10.728903807653113 6.431293798775500 -0.655560187899114
9.227754417439309 5.535829873124886 -0.941456333160203
7.991318674074376 4.795975578834828 -1.144353134574335
6.804104667859756 4.086702430024673 -1.257107361063295
5.392928317619543 3.241679445662396 -1.223085660363652
4.646067599434023 2.793846818683587 -1.251627666369265
3.924538564675482 2.361831257369420 -1.227319911876153
10.825973456095877 6.430548531900314 3.373965071956460
11.450547234866844 6.804244660601240 3.075080912880634
11.810172514851434 7.023523732673849 2.670944317280874
24.830665491546334 14.778561910617134 4.576646709216995
24.962138864324356 14.862712034928474 3.567115681468667
10.173516330366954 6.062226553570425 1.036107469784160
9.837052258702288 5.864060054987684 0.600188746194080
18.586344640630674 11.088480288476655 0.377774789741439
11.591280663812535 6.885135379077920 -0.235328248400331
10.697465578426046 6.359268465676283 -0.652210686699566
9.229147272740166 5.490765635195579 -0.939538906819755
7.973020825634960 4.745333222196621 -1.139234622151319
6.803763378314618 4.052638723455613 -1.254291540692571
5.399714373175954 3.218875790364170 -1.221940806391393
4.639539198787419 2.766818057811377 -1.247128645282388
3.934827613539025 2.348421300070197 -1.227837549966358
11.422071541543147 6.728114318744993 3.552032574986995
27.566687610653375 16.250984000251439 7.387842526761214
9.868099184315593 5.822038082978214 2.227122594035031
25.027562839317440 14.771795114969299 4.602927699343753
10.754168312995477 6.352399485783961 1.533603817410376
nan nan nan
18.580301053925719 10.988359411797530 1.131294030147474
13.748001948967978 8.137024428566402 0.278854550054916
12.855673114960974 7.575592749008128 -0.260459713670019
10.712716932655129 6.317830253400213 -0.651791999049622
9.145308332546989 5.397753741302361 -0.929080217690036
7.957058764515839 4.698296554941708 -1.134603587101923
6.797460589022506 4.016805007511048 -1.250537113531605
5.421056582860937 3.206003925947210 -1.224230514335912
4.610593575012177 2.727783697328318 -1.236780896782570
3.934689607475855 2.329750566011044 -1.225249359515333
11.426976978554935 6.685414873167894 3.547373832175149
9.680709886281454 5.666020005325220 2.589636537606574
9.888034956111733 5.792000146073881 2.227504212025784
27.651346665611317 16.209976856807980 5.076611259485571
10.780921240245940 6.322599876922244 1.534578772157617
9.978093163440651 5.856453682443780 1.012226796271302
9.927396853938324 5.829028215623434 0.603328903568656
18.740507626467053 11.012584525003907 0.379415315946544
11.481349381087078 6.717225742242055 -0.232186815241620
10.717000182824112 6.275061547231342 -0.650849951837249
9.119245949056264 5.343813408704847 -0.924722430552653
7.906703855799406 4.635126385202015 -1.125341517003132
6.815157557439518 3.998429190159549 -1.251475720321847
5.436180733365196 3.191939573508974 -1.225375368308171
4.610738901623602 2.708350611986063 -1.234531386239131
3.988620358002407 2.344790901810653 -1.239743226041074
11.421325389826238 6.626038305679909 3.538056346551458
nan nan nan
9.884427843988613 5.743639978058432 2.222161560155241
25.061793769435251 14.568750255681765 4.591351548930776
10.790914674826647 6.277941228511267 1.532872601349945
10.100061235150742 5.880736173764573 1.022511173915526
18.588913731118343 10.827694667096102 1.127421169385496
12.436874875920269 7.250062469317526 0.251279747884008
nan nan nan
10.001385706456515 5.809267080437848 -0.606155045205775
9.110283837782978 5.295927786019168 -0.921933446784728
7.898811103999534 4.593527410253184 -1.121929175387788
6.852974915737644 3.988526645206232 -1.255855885342974
5.447289562681433 3.172944315150446 -1.225375368308171
4.665625523774986 2.718730325578144 -1.246678743173700
3.876627158165547 2.260782138758767 -1.202473283546311
nan nan nan
nan nan nan
10.026189918999393 5.776963318779650 2.249256437498710
26.522559997116211 15.294296508087422 4.849155547317077
nan nan nan
24.263416148101175 14.008489844566130 2.451168109035138
56.955985289357969 32.896809034254382 3.447055421985252
12.420082565879669 7.179411488917321 0.250407127562144
11.336739341353928 6.524181064537875 -0.228312381012543
10.671631272053791 6.146377777332273 -0.645407012387983
9.039873137374357 5.210761882241755 -0.912869249538972
7.889799271455249 4.549671278339988 -1.118273095085633
6.706723084448239 3.870567810092571 -1.226446205915410
5.457182339758939 3.151975764866607 -1.224993750317418
4.663747602799869 2.694786978232157 -1.243529428412886
3.968505193195810 2.294913084095434 -1.228355188056564
9.460736472256768 5.400686527645808 2.918961190666229
11.378563347216677 6.498116447974552 3.025141778816297
10.000272833129003 5.715626810632441 2.238952751748377
25.113165623512664 14.364988739623989 4.582278349958443
31.171408493214560 17.837587147170524 4.409720321771856
10.205854237296018 5.844947832720984 1.028960698878852
9.436071507995404 5.406276401540088 0.569938563485658
12.462415181245476 7.145960620561465 0.250756175690889
11.062476340687750 6.315043983177478 -0.222343658010992
10.613248337489438 6.063513955005018 -0.640592104413632
9.080492044632356 5.192031549612006 -0.915135298850411
7.897016966399195 4.517174835685917 -1.117054401651582
6.591617906094764 3.773527528280643 -1.202981036159375
5.446006379395333 3.120219653551199 -1.220032716437627
4.679888596425309 2.682367296816844 -1.245329036847637
nan nan nan
9.483636475125742 5.372140408676003 2.920514104936844
30.375265247164023 17.213503204050422 8.060446179249372
9.788629848856088 5.551680174925387 2.187434322996710
32.112832510014989 18.220394051024648 5.847833172133910
9.889392919887099 5.615674273061648 1.396378936736180
24.018694754541777 13.650063095325077 2.417003057878056
9.453947483875023 5.374955535256552 0.569938563485658
12.475615307959686 7.098660790280308 0.250546746813642
11.542698594303401 6.538525354305384 -0.231558528609878
10.442175962076208 5.919934273522043 -0.629078194040185
