# This PCD file was generated using the MATLABÂ® pcwrite function
# from Computer Vision ToolboxÂ®.
# .PCD v.7 - Point Cloud Data file format
VERSION .7
FIELDS x y z
SIZE 8 8 8
TYPE F F F
COUNT 1 1 1
WIDTH 990
HEIGHT 1
VIEWPOINT 0 0 0 1 0 0 0
POINTS 990
DATA ascii
-23.875466469835612 8.211661291053266 -0.440708167354283
-14.859968796295954 5.105096178249389 -0.823453935526478
-9.641201375723027 3.308442657294248 -0.891777559794038
-7.045242320248168 2.416247624861887 -0.914507552912227
-5.795034842378583 1.985213948602561 -0.970206552179512
nan nan nan
nan nan nan
nan nan nan
-33.479892000998262 11.645829602072885 9.498141317172307
-29.982805390829746 10.417652883876633 7.328005546305747
-35.590339863371447 12.352093027615579 7.322867624561036
-25.099405074501359 8.701261386233744 4.207461371722050
-22.093839848203388 7.654996753247215 2.870997991938464
-21.912258575682614 7.583517110020323 2.028637068194492
-25.813939575650810 8.928788000643006 1.431493075157000
-25.417612086396247 8.781769499210663 0.469399923537177
-24.535630875346612 8.529808540014709 -0.453413519240626
-14.886352927314743 5.169414811053408 -0.825861389513654
-9.665942100867259 3.352801534392175 -0.895089478018449
-7.054071272885007 2.445449117232291 -0.916701201093519
-5.680155229953973 1.966930102048584 -0.952060154234845
nan nan nan
nan nan nan
nan nan nan
-29.796078628250804 10.481166461106662 8.463382774852429
-30.144821438327373 10.592018270389595 7.376594974044021
-33.440750202228784 11.736999711732015 6.888967969074773
-29.328495136952412 10.287935707478088 4.922679745885985
-21.922731174918411 7.681527010591570 2.852230113054071
-22.036096376905618 7.712613778348483 2.042581987034117
-25.795500876189177 9.018295830280952 1.432121106631915
-25.594458427861511 8.942997160048598 0.473239452953380
-24.450998147325627 8.596168139446453 -0.452401279667263
-14.930404070916689 5.243184717015145 -0.829315562625688
-9.684260934475200 3.397073508309414 -0.897878461786374
-7.058605206723104 2.474654811253285 -0.918407371901191
-5.665797307594377 1.984133999032774 -0.950808678514523
nan nan nan
nan nan nan
nan nan nan
-29.952245984444282 10.653735510408618 8.518252412414162
-27.186141528920341 9.659168833272286 6.660800719121843
-27.593689720276494 9.793123117278455 5.691450714091578
-22.669784962432612 8.036698560542600 3.809492092659702
-21.875201819437414 7.750712220610722 2.849548987499158
-23.605531295118901 8.354520749499551 2.190746749705136
-25.707372551308964 9.088312602175726 1.428980949257338
-24.499685384416999 8.656549521324774 0.453553138492124
-24.381275199716793 8.667399575523454 -0.451668278596897
-14.953417548048019 5.309973122576739 -0.831618344700377
-9.662955133082711 3.427526908656293 -0.897006904358898
-7.063021038619965 2.503921899048667 -0.920113542708863
-5.651388581385667 2.001261657256579 -0.949557202794201
nan nan nan
nan nan nan
nan nan nan
-29.389510487390915 10.569287711562815 8.368655004344907
-31.614362887071501 11.356945515000829 7.755412549559090
-27.439224791687312 9.846282298515908 5.666645544692628
-22.072578456460267 7.911820904506090 3.713754200055081
-22.745032287615636 8.148379566438132 2.966543557168100
-24.401617736327477 8.732239486461667 2.267443803323075
-25.573933308155127 9.141689486009936 1.423328665983100
-31.124280939888244 11.119597590738396 0.576906747190844
-24.396035694452110 8.768686601784607 -0.452505994105887
-14.981785489827873 5.379010621274147 -0.834235142512525
-9.630302297276170 3.453837357117147 -0.895089478018449
-7.071055739879515 2.534589546484652 -0.922307190890156
-5.644368444356336 2.020976492435304 -0.949557202794201
nan nan nan
nan nan nan
nan nan nan
-29.120075546476698 10.581576903679911 8.301879690708455
-30.894973275985041 11.220430794676695 7.588498867235942
-33.402750513842363 12.118008872853311 6.906904014640169
-28.593272951313917 10.361910579085828 4.816930047518789
-22.570868184672747 8.174996076768704 2.947531939596897
-30.268886840006111 10.951209256433001 2.816176359662331
-25.538110342283268 9.229545792738911 1.423119322158129
-30.940457809775424 11.175864484395657 0.574219076599502
-23.500728484960092 8.539633262943028 -0.436449780183586
-15.034259355172631 5.457169701645732 -0.838212675186988
-9.653775714143300 3.500336182746719 -0.898401396242860
-7.060298969249130 2.558580359287256 -0.922063452203346
-5.655853764875727 2.047390480915698 -0.952685892095006
nan nan nan
nan nan nan
nan nan nan
-29.200771828800931 10.732220752903951 8.336043804661987
-31.997131804385898 11.747296582893586 7.869237783057085
-23.775558291086117 8.719444913040999 4.922490462724103
-23.626796619557361 8.655532720453360 3.985324431364921
-27.418600890711033 10.039209723086429 3.585152344292629
-24.925734412470590 9.116590847555997 2.322003298283109
-28.685512950442689 10.480379200967926 1.600538213821708
-30.298297719165308 11.063623721247543 0.563014631666766
-24.465618998450434 8.987053584400030 -0.454949331007107
-15.071369128798651 5.530256232276735 -0.841352832561565
-9.639627763924681 3.533327139847192 -0.898227084757365
-7.068100398081882 2.589355436208656 -0.924257100384638
-5.652382710773434 2.068478336154817 -0.953311629955167
nan nan nan
nan nan nan
nan nan nan
nan nan nan
-27.746569048077575 10.302322344534183 6.833113226749243
-26.730927905250713 9.914598140218356 5.541856461716367
-24.487734382413564 9.072867029848755 4.136127255663705
-23.878173560701857 8.842281407775378 3.126436135715653
-24.034447269941133 8.890612007540694 2.241994326440758
-25.303042508050094 9.354859455766324 1.413803521946885
-30.175006375526937 11.144115746514508 0.561478819900285
-24.546861291574121 9.119143597650856 -0.457078524592455
-15.071595780788376 5.593102113652136 -0.842504223598910
-9.671448491676525 3.585255256367353 -0.902410560409253
-7.056701025667116 2.614554252975553 -0.924013361697828
-5.637353135555651 2.086438853108137 -0.952060154234845
nan nan nan
nan nan nan
nan nan nan
-29.510234303757123 11.086290046660087 8.446818355965867
-31.447005046743275 11.801363890349100 7.754512745341715
-23.741968260125560 8.900380955233214 4.928596350576153
-32.101376931924690 12.027763514059497 5.429527412616332
-23.783952073545322 8.901919256548089 3.118149020364104
-28.821835850853223 10.776042859259903 2.692066581989665
-25.238428515590464 9.431241382026331 1.412024099434624
nan nan nan
-24.587891089532341 9.232186561578983 -0.458439812294563
-15.065070694385243 5.650587620605636 -0.843236926986311
-9.677531975185932 3.625983590801274 -0.904153675264206
-7.060544651798250 2.644043979797030 -0.925719532505500
-5.639286558295748 2.109564748603552 -0.953624498885247
nan nan nan
nan nan nan
nan nan nan
-28.133176643724603 10.669938582991074 8.062213254943522
-31.615429915301736 11.984325299107430 7.805801585732116
-23.321248675399229 8.830976464889874 4.847311718545744
nan nan nan
-23.583474010153367 8.916156344413093 3.095725061177556
-25.102892820813981 9.480586220732810 2.347627086650920
-28.675081274990930 10.823973101531831 1.606295169008432
-28.105734957764749 10.597854997461855 0.524305194188871
-24.630060650920893 9.341328132573029 -0.459801099996671
-15.152709152601993 5.740847952838179 -0.849203225998006
-9.764214757366091 3.695432977372238 -0.913392183995458
-7.048024469324358 2.666038395065148 -0.925232055131880
-5.648890671708291 2.134537911302726 -0.956440319255972
nan nan nan
nan nan nan
nan nan nan
-29.080548301019128 11.151331375521702 8.345361290285679
-30.326846167913192 11.617100163881014 7.497618641281020
-26.196523448661200 10.024440608749982 5.452176233889392
-22.933803760392163 8.771329942995218 3.888960800900140
-23.678303514883289 9.046600454028283 3.112299291880656
-29.887009475871505 11.406762635929629 2.798745211112799
-24.537308851122393 9.360074325859737 1.376330977276937
-28.946822626948904 11.030567347442823 0.540710456239918
-24.679462339446367 9.458734740423452 -0.461336911763152
-15.298582641112121 5.857263034447030 -0.858519026209251
-9.775447848913261 3.738746494876910 -0.915658233306897
-7.047946493675444 2.694168374985062 -0.926450748565931
-5.654323169090537 2.159176058661005 -0.958630401766535
nan nan nan
nan nan nan
nan nan nan
-27.924777609780989 10.808885324708424 8.023390398178144
-28.417977975785551 10.994086528778665 7.034669371441347
-26.793088815658866 10.354713433640002 5.583452822708455
-23.400007904010263 9.034004061607712 3.972809674161703
-23.609281738843180 9.110063632033253 3.107180779457640
nan nan nan
-28.843025503487972 11.112249980922552 1.619902517631598
-30.938698961690761 11.907241680374597 0.578651987834572
-25.451718456419020 9.851634629163145 -0.476380886112091
-15.394571684726548 5.952621827318183 -0.865008684783376
-9.755561745030684 3.768270880721560 -0.914960987364915
-7.029714186750338 2.713950643758555 -0.925232055131880
-5.656347287592072 2.181468636286831 -0.960194746416937
nan nan nan
nan nan nan
nan nan nan
-29.158687127524779 11.409555879089719 8.389878166043314
-26.470042377809854 10.346858139594900 6.561372353101854
-28.536177224705096 11.143006858786022 5.954767127711211
-22.579137900327915 8.812318926493802 3.838901772087266
-23.473766233754272 9.152039018703046 3.093531412996263
-23.429588327063410 9.125394381724504 2.199810946950892
-29.341950010772166 11.422253089076067 1.650152700340019
-29.353776479055799 11.415059372271330 0.549750802774431
-23.932892219665082 9.359928758174735 -0.448561750251061
-15.453693205388053 6.037575292218982 -0.869509577020269
-9.790605604131605 3.821135219953292 -0.919493085987794
-7.042390310109815 2.747129311315773 -0.928156919373603
-5.648698080606215 2.201199682697818 -0.960194746416937
nan nan nan
nan nan nan
nan nan nan
-29.020076920301790 11.466431995493330 8.360890432991830
-27.836652840631590 10.993220167884756 6.909596585226158
-23.149790347608484 9.132949809795299 4.837389650786164
-24.714718014618072 9.740369513698129 4.207461371722050
-23.181254615405962 9.131339030905629 3.059164258156012
-23.729459603985298 9.337715631916165 2.231012702854553
-24.244464668569879 9.535487531024549 1.365340426465919
-24.377874231519463 9.578133818138511 0.457183239031079
-24.324104737951767 9.610956359452702 -0.456520047586462
-15.493830509059329 6.115680701892252 -0.872963750132303
-9.810570688987637 3.868443015118005 -0.922630692726709
-7.049379674348697 2.778245854550988 -0.930350567554896
-5.646494200509558 2.223074879747566 -0.961133353207179
nan nan nan
nan nan nan
nan nan nan
nan nan nan
-26.822515196986668 10.701098484862996 6.667099348643472
-24.706249732923954 9.846798771435775 5.169778920732105
-22.685898691394307 9.036989752355908 3.867685713654668
-23.104973131763327 9.194585524284673 3.053314529672565
-28.690083457084498 11.405571784833656 2.701130779235422
nan nan nan
nan nan nan
-24.340552633007174 9.715820583021069 -0.457462477534075
-15.479809215631589 6.172686106147052 -0.873382437782247
-9.834026265962983 3.917411242941781 -0.926116922436616
-7.054393125567024 2.808710282397640 -0.932300477049378
-5.651548420511229 2.247881760416684 -0.963323435717742
nan nan nan
nan nan nan
nan nan nan
-29.623743799767901 11.944718954549142 8.558628183450155
-26.875371818049516 10.831083033637981 6.689594454077858
-31.442930154488298 12.659104915879361 6.588634610352092
-22.608156084256475 9.093004322589797 3.859551121472576
-23.227451886318509 9.337375789702708 3.073788579364630
-24.288610507183702 9.754111763474079 2.289929984951971
-23.209767117841785 9.316153037613507 1.310701688148285
nan nan nan
-24.269397643204961 9.785769685415380 -0.456764381276584
-15.478546909151438 6.234891832537967 -0.874533828819591
-9.842472255778436 3.960639920170137 -0.928208660262560
-7.040862496564927 2.831836124866828 -0.931812999675758
-5.645500372362334 2.268332122512363 -0.963636304647822
nan nan nan
nan nan nan
nan nan nan
-29.594392548066274 12.053153130680569 8.562251650081592
-26.776033165711731 10.899848486139160 6.674297782382475
-27.321194191441968 11.110654129635765 5.733047075083666
-22.872756196063690 9.292313775077137 3.910235888145611
-23.498192253614082 9.541626422708983 3.114005462688328
-24.042093582047524 9.752707217667634 2.269884164120009
-23.036437044913388 9.340079416821196 1.302746622799358
-24.287358012798517 9.837392779872905 0.457392667908326
-24.164715600310132 9.841763672520960 -0.455437998387350
-15.489988642643715 6.302432821901768 -0.876417923244337
-9.832278566831420 3.996472889434058 -0.928557283233550
-7.056682251132723 2.866856321400732 -0.935225341291102
-5.652191003182005 2.293967698419756 -0.966139256088466
nan nan nan
nan nan nan
nan nan nan
-29.589657478002810 12.171816817989402 8.573122049975897
-26.499912619409169 10.895431315065633 6.614910704035695
-27.093377023380786 11.128379531510486 5.693358804045344
-22.538854877032662 9.253050292512889 3.858925383612415
-23.600652977935457 9.679333197027704 3.132042125512290
-23.104519315277219 9.466433716949295 2.184471536227304
-22.907583174037811 9.381075646092299 1.297303683350092
-24.221407552522621 9.909239455519701 0.456799286089459
-31.738407138706506 13.055713067117852 -0.599036398553319
-15.523315294972623 6.379239440222243 -0.879558080618914
-9.895679160215302 4.062549648045778 -0.935878365624353
-7.074179491259510 2.902774914048686 -0.938881421593256
-5.647804663506242 2.315182051017296 -0.966764993948627
nan nan nan
nan nan nan
nan nan nan
-28.422777679278340 11.813803450904249 8.247527691236925
-28.756399816615243 11.940701709179075 7.188535892612550
-24.326987656307566 10.091494461856989 5.119405345952697
nan nan nan
-23.693267060849760 9.814072553531698 3.148860094902201
nan nan nan
-30.991763855876755 12.818201626082619 1.757650754463026
nan nan nan
-24.712208346516945 10.266463644935575 -0.467096205887456
-15.519399947755748 6.441043118025768 -0.880604799743773
-9.931130388847834 4.117670880408354 -0.940584775732727
-7.086010059997751 2.936570508190188 -0.941806285834980
-5.632388193668376 2.331859961906693 -0.965513518228305
nan nan nan
nan nan nan
nan nan nan
nan nan nan
-26.610403176462505 11.147747600581027 6.660800719121843
-27.685439923585275 11.586748343779583 5.833794224642481
-22.637358769876325 9.469412300046827 3.886457849459496
-23.460843410859670 9.804262414675387 3.122048839353068
-24.376045246919610 10.176730955430093 2.311021674696904
-24.181196286085886 10.090427996171515 1.373190819902360
nan nan nan
-24.720407034406509 10.361054156126308 -0.467864111770696
-15.556198892899939 6.513680206903067 -0.883849629030835
-9.927335632950220 4.152694451017244 -0.941456333160203
-7.074918141873032 2.958051597860269 -0.941562547148169
-5.635971211638884 2.354111227955935 -0.967390731808788
nan nan nan
nan nan nan
nan nan nan
-28.020325852154190 11.859308267839834 8.152799920729404
-28.940403006615611 12.242765831469116 7.254671502589646
-25.691767013891752 10.857911849807559 5.421646794629145
-22.320295083497140 9.428461782730421 3.837650296366944
-23.596565622019270 9.957874509464007 3.144716537226426
-23.973193151659625 10.106956248099294 2.276159377597841
-24.475280492090498 10.313602658789506 1.391927092237334
nan nan nan
-23.958520270618532 10.140191767566854 -0.454111615498117
-15.557281600763678 6.578053496756936 -0.885210363893152
-9.940309943971402 4.198951316039018 -0.944071005442633
-7.040775465029457 2.972691988163447 -0.938393944219636
-5.642280216824312 2.379911804673830 -0.969893683249431
nan nan nan
nan nan nan
nan nan nan
-28.232787793818989 12.065607585670863 8.226822167628725
-28.918996573827570 12.352898121371517 7.260070327893899
-26.347101603182089 11.243426628939101 5.568188103078331
-23.266521948773775 9.919213400021697 4.005973780750232
-29.586303864521597 12.607423350851429 3.948810465013588
-22.958844913777298 9.773838490766234 2.183077044343342
-23.896914124440759 10.163333222760810 1.360944206141511
nan nan nan
-24.299935433033902 10.384857755928550 -0.461267102137403
-15.589330574382432 6.655845670836158 -0.888350521267729
-9.927424951445408 4.234405579875222 -0.944245316928129
-7.034008071675573 2.998807783735047 -0.938881421593256
-5.633938399613297 2.399592538860632 -0.969893683249431
-4.572289617378540 1.945532543850509 -0.965875134596070
nan nan nan
nan nan nan
nan nan nan
-29.147690968577372 12.571075369311812 7.328455448414434
-31.154180533232523 13.423556278723101 6.593977262222635
-25.936912063932265 11.170199072761299 4.472774224430282
-26.183274883347938 11.265466423157116 3.499843803909025
-27.328656859129456 11.746968191187811 2.602470478445073
nan nan nan
-24.373634285354481 10.461662755782431 0.462977437968257
-29.520178241405070 12.737836065262972 -0.561199581397289
-15.624693545378035 6.735522747564131 -0.891700022467277
-9.974800332604460 4.295827704994158 -0.950171907434969
-7.047200817599004 3.033546173660528 -0.942050024521790
-5.625527934640845 2.419244034769614 -0.969893683249431
-4.637623419721549 1.992480264218246 -0.981139854226193
nan nan nan
nan nan nan
-27.852095304739059 12.133563361149536 8.140376606564482
-29.176887039754867 12.704640962092574 7.346901434870632
-27.114100456857312 11.795173842740283 5.747548558732283
-23.079007958073259 10.035038261992121 3.985950169225083
-29.517595139043944 12.822365905602430 3.951491590568502
-23.149584397004723 10.046514626334647 2.207829275283677
-30.242582167775769 13.112208565243085 1.727505243667090
-29.529490302300562 12.796912689010433 0.561758058403282
-29.363704744250256 12.792085052639658 -0.559070387811940
-15.624894262125327 6.800383649553964 -0.893060757329593
-10.021867111756885 4.357631840405884 -0.956098497941810
-7.034748244376003 3.057335777799106 -0.941806285834980
-5.615236973119885 2.438079321968681 -0.969580814319351
-4.605424646270720 1.997718610664950 -0.975797202355650
nan nan nan
nan nan nan
-27.752983363759395 12.205823771881601 8.123812187677922
-26.772158830433607 11.768878959948703 6.751680945076764
-29.591117129886481 12.995752552917946 6.282195363777361
-22.273298876556648 9.777294635979137 3.852668005010806
-22.791678974275612 9.995360211524190 3.055751916540668
-24.811545511445868 10.870853815341233 2.369938956794321
-29.666027791233891 12.985440294679982 1.697150389046182
-29.420519895850852 12.871858141441084 0.560536389952672
-23.953722539767664 10.534900416606867 -0.456764381276584
-15.676031239385159 6.887823997548212 -0.897352305741515
-10.026663002218092 4.401397338206642 -0.958015924282259
-7.014944222826863 3.077885074470689 -0.940587592400928
-5.621165830325225 2.464009711898474 -0.972083765759995
-4.616406914577140 2.021657938508705 -0.979613382263181
nan nan nan
nan nan nan
-27.741989818210232 12.316735713799355 8.133129673301612
-28.038727120874125 12.436764738909112 7.081459190744870
-26.623945568274060 11.798108711607773 5.660539656840578
-22.278598239723610 9.863213439680591 3.858925383612415
-29.758202111206455 13.168383252261719 3.995608292881165
-23.208221936921291 10.260247586373735 2.220031079268349
-29.534657536885714 13.050973721045182 1.692230809159346
-29.447189147734314 13.000038366176193 0.561862772841905
-23.723080713503393 10.527486389098888 -0.453029566299005
-15.742571376459942 6.979434797141422 -0.902481229453323
-10.019299075640937 4.437850278017414 -0.958713170224240
-7.022850608696556 3.109166643395794 -0.943024979269031
-5.614770526814863 2.483435667790606 -0.972396634690075
-4.622247687848127 2.042509991217210 -0.982284708198453
nan nan nan
nan nan nan
nan nan nan
-28.028937264640295 12.549693058554073 7.090007330809938
-27.324540314683031 12.222857562393605 5.818529505012357
-23.226917440547748 10.385037625532627 4.029751819436347
-22.668740719349596 10.125976755519833 3.048439755936359
-23.008516860575437 10.268119964922818 2.204343045573770
-24.467476197008612 10.908976515629892 1.403964362173211
-29.425376015077191 13.113330869208067 0.562316535409275
-23.808460887190741 10.665003234681777 -0.455368188761601
-15.792856676260053 7.067794361215586 -0.906772777865245
-10.023754540381335 4.481742715856004 -0.960630596564688
-7.015579492008580 3.135281906857623 -0.943512456642652
-5.609675019534142 2.504630439352548 -0.973022372550236
-4.634812443283614 2.067429776497493 -0.986482506096737
nan nan nan
nan nan nan
nan nan nan
-26.828567872628831 12.130478100441792 6.797570960162913
-26.748172666091666 12.082883676323862 5.705188961758690
-23.320161865257354 10.524557306115684 4.052278382402140
-29.514830659317070 13.314055996833840 3.975621720562721
-22.999790850628962 10.365479488782876 2.207132029341695
-29.386369340637881 13.231424992623152 1.688985979872283
-29.384409741964319 13.224374888456422 0.562456154660773
-25.864458870216776 11.699995831440852 -0.495508723567353
-15.754105687216606 7.119872848545091 -0.906040074477844
-10.043578209028899 4.534849446719705 -0.964116826274595
-7.018515884489272 3.167506857670577 -0.945462366137134
-5.587851879815662 2.519490431388242 -0.970832290039673
-4.627203803213199 2.084403326780690 -0.986482506096737
nan nan nan
nan nan nan
-27.813126234652408 12.704495941955146 8.193175691765397
-28.296533328959040 12.913370569305670 7.180887556764858
-27.850878637530055 12.698247539065330 5.949806093831421
-27.683952002928788 12.610468996379653 4.818181523239111
-23.043748780912043 10.491928519232525 3.108886950265312
-22.684178123711586 10.318656057095675 2.180288060575417
-29.381824795594476 13.352927916112119 1.691393433859459
-29.640298123222134 13.464153100070966 0.568250353597951
-25.721592993053157 11.743698663345095 -0.493554054046378
-15.734608131108690 7.177308215730903 -0.906354090215301
-10.025874444287394 4.569054218934925 -0.963942514789099
-7.016448966812517 3.196101197954273 -0.946681059571186
-5.593406733454408 2.545526197437252 -0.973335241480317
-4.639558834887087 2.109481062464775 -0.990680303995021
nan nan nan
nan nan nan
-29.156929511361220 13.435358750337038 8.602109783027380
-29.479678552031519 13.577842642568619 7.493119620194144
-27.817084741322535 12.800312029812483 5.952095801775939
-24.434269814735050 11.233342093321818 4.259397614115406
-23.382167228148244 10.744708320310078 3.159584597121854
-22.557486950047728 10.356211249060559 2.171572486300651
-23.754498290637528 10.895724813590469 1.369631974877840
nan nan nan
-25.640487702163789 11.815000982114478 -0.492786148163137
-15.711273024170975 7.233023743395234 -0.906458762127787
-9.999003775298268 4.599027891949721 -0.962896645876127
-7.021482301086309 3.228036413134053 -0.948874707752478
-5.602437890127455 2.573280373209983 -0.976463930781121
-4.650010584887750 2.133851518718522 -0.994496483902552
nan nan nan
nan nan nan
-29.240609482721283 13.604066971823780 8.641450277882962
-27.949453494172676 12.991496200803683 7.115651751005138
-27.640468419703012 12.836142364272540 5.923856070460210
-28.484022166666470 13.215800794279248 4.973364512559020
-22.786252848602089 10.567360275496728 3.084025604210662
-33.356973430291056 15.455495442176550 3.216395530359577
-29.037766069092989 13.441939917321251 1.676948709936406
nan nan nan
-25.669805158328810 11.937316174294095 -0.494147435865245
-15.740268588293187 7.313068752174488 -0.909598919502364
-10.022647321996640 4.652357990156314 -0.966731498557024
-7.020975845566341 3.257539178053174 -0.950337139873340
-5.595213522210490 2.593651619708942 -0.976776799711201
-4.631844850875506 2.145119808113531 -0.992206775958033
nan nan nan
nan nan nan
-29.085158317475020 13.649252703832165 8.608839078200045
-27.896877291211883 13.085668538241121 7.113852142570387
-26.807965108039081 12.563474510519473 5.754799300556591
-23.045713942436244 10.790496820306295 4.030377557296508
-22.233220720197277 10.405339339123547 3.014072601096107
-32.710834491544787 15.295036163592037 3.159221363117113
-28.999160220331010 13.553352308275883 1.677576741411322
nan nan nan
-29.255759051576980 13.729313211180953 -0.564096680865878
-15.759854310538589 7.389164675095735 -0.912215717314511
-10.042431414050126 4.704218623093079 -0.970217728266931
-7.016753276018604 3.285394156278784 -0.951312094620581
-5.605807958503636 2.622373944183137 -0.980218357942087
-4.626107354584749 2.162106154668419 -0.992588393948786
nan nan nan
nan nan nan
nan nan nan
-27.599151679181631 13.063743443856781 7.049516141028041
-23.821332734489769 11.265379413052507 5.122076671887969
-22.981007350708197 10.863072408121365 4.025997392275381
-22.485756171403168 10.619367014238408 3.053314529672565
-27.918305164671818 13.173084546781846 2.700782156264431
-23.447477524053916 11.058548333293844 1.358641424066822
-28.693286216060567 13.520390621967719 0.553660141816382
-24.803284372962956 11.745650900409400 -0.479033651890558
-15.784516190506151 7.468048704895848 -0.915146530864116
-10.081789263768894 4.765639952348175 -0.975621384317286
-7.005242361795262 3.309867180286505 -0.951312094620581
-5.593047321963809 2.640239374176990 -0.979592620081926
-4.627410389416861 2.182428425269051 -0.994496483902552
nan nan nan
nan nan nan
nan nan nan
-27.782539840931609 13.263497994352623 7.107553513048758
-28.116395417292829 13.410832681715345 6.055132659279273
-24.530286140918491 11.689837304052343 4.303825002186832
-28.169207426563961 13.417922310826196 3.831084679284216
-27.896056728070839 13.275866666131389 2.702873894090375
-31.463733636678139 14.967006518122959 1.826001513316310
-28.673578562278838 13.627483829749695 0.554148809196626
-27.312073822586441 13.044749375980006 -0.528319247669446
-15.802925577060552 7.540994748410312 -0.917658656763777
-10.091108713469296 4.811050213382539 -0.978061745114220
-7.001395982712875 3.336495117463584 -0.952287049367822
-5.584261220215245 2.658772070539552 -0.979592620081926
-4.627239307377416 2.201134858124372 -0.996022955865564
nan nan nan
nan nan nan
nan nan nan
-23.527731695347324 11.333249240053599 6.029138158524270
-26.917764329050712 12.954645121181919 5.806699347299012
-24.216698345023939 11.649504715041427 4.256268924814602
-22.870980003113857 10.992314165546022 3.115711633496000
-27.820808559116983 13.359361983044408 2.700084910322450
-28.901274503092480 13.871987510621343 1.680088867310983
-28.991862069038881 13.903018147917136 0.561234486210163
-27.289791283612789 13.151292514444989 -0.528773010236816
-15.841289506313961 7.627303281326264 -0.921426845613269
-10.095798900641233 4.856609898652716 -0.980153482940164
-6.991495807854146 3.361774452066337 -0.952530788054633
-5.583849173242270 2.682525567639361 -0.981156964732328
-4.640766930062366 2.227467888540393 -1.000602371754601
nan nan nan
nan nan nan
nan nan nan
-23.354822193763539 11.350568601243959 5.994945598264003
-27.465776594396555 13.336664543409961 5.934922992192050
-24.291679102351836 11.784928702881841 4.276292536339751
-24.293548379481763 11.780598041945767 3.315089879306822
-27.956895061678939 13.545002254760329 2.717864681842972
-28.931768905080247 14.011090346423362 1.684694431460362
-28.559742201724159 13.818619873044380 0.553799761067880
-24.844674258751631 12.080005567142811 -0.482209989862143
-15.911579611408857 7.729680107131147 -0.927079128887507
-10.148689089923582 4.925749915939728 -0.986951630874481
-6.976146414946911 3.384425908748913 -0.952043310681012
-5.594004634345994 2.711478176105093 -0.984598522963213
-4.624128554001043 2.239375102025236 -0.998694281800836
nan nan nan
nan nan nan
nan nan nan
-23.159333682476660 11.355666516563849 5.954904310590795
-23.926440571749140 11.721442288480604 5.178937752510179
-27.186222313915046 13.312509738050661 4.794403484552996
-23.228764862476559 11.364576821682434 3.175183873077712
-28.170781646231003 13.770252897710773 2.743314158725288
-29.024451328050624 14.181262413861672 1.692963512546747
nan nan nan
-24.708999130294881 12.120860476100729 -0.480394939592666
-15.947271465567146 7.815939286531810 -0.930742645824513
-10.104592581088420 4.948002174834065 -0.984336958592051
-6.974987896985382 3.413992770254687 -0.953505742801874
-5.605800316720374 2.741402060085057 -0.988352950124179
-4.618047464428814 2.256364545621612 -0.999075899791589
nan nan nan
nan nan nan
nan nan nan
-27.004837959086494 13.352487233849812 6.955036698203618
-23.486117658936315 11.602462406353192 5.091928850618475
-27.064554702610575 13.358508208088564 4.780324382699375
-27.157285268028534 13.398384054293397 3.718233667291050
-28.214316625200254 13.907639832898756 2.752029733000054
-29.027429653825269 14.302149702997099 1.695894326096352
-28.247936143228326 13.905832213930033 0.549576278710058
-24.731402713973306 12.233763985059161 -0.481616608043276
-15.985723756905058 7.900636776095846 -0.934510834674005
-10.109566353232264 4.992068767202354 -0.986428696417995
-6.979648955475105 3.445011339953711 -0.955699390983167
-5.587820369797902 2.755608056850384 -0.986788605473776
-4.622867344617623 2.277740110244483 -1.001747225726860
nan nan nan
nan nan nan
nan nan nan
-27.209177909121706 13.571925587338516 7.019822601854651
-27.629216803271294 13.769398936902421 6.000561286601581
-26.474360685547616 13.188092800263149 4.684586490094754
-28.400558176915133 14.135248495988025 3.895187953915324
-28.165598011263022 14.006041447054910 2.752029733000054
-24.717114346222676 12.285817257863799 1.446565830554967
-28.201014629704609 14.005240640636389 0.549611183522932
-23.969255846689865 11.961078652956640 -0.467584873267700
-16.049206201748394 8.001839036048809 -0.939849102210785
-10.115262973648498 5.038876231234772 -0.988694745729434
-6.987127998639981 3.479086822162023 -0.958380516538080
-5.588779065541207 2.780375595994566 -0.988665819054259
-4.618404489223702 2.295610757093555 -1.002510461708366
nan nan nan
nan nan nan
nan nan nan
-27.870847338788074 14.017575870971672 7.202482857981870
-24.160914661461952 12.141108856532203 5.256024586642303
-26.616396371682239 13.363378811205402 4.717124858823122
-23.918021958352359 12.003371066734976 3.285841236889586
-24.369916517132619 12.219509138663655 2.385104056032413
-24.399477670445751 12.229002906046308 1.430341684119655
-24.517551080485337 12.277475021136331 0.478614794136063
-24.556455833856415 12.355981136641129 -0.479836462586673
-15.997600593387979 8.042456794697278 -0.938383695435983
-10.126984435521178 5.086700527537843 -0.991483729497359
-6.980874654160313 3.504909948528493 -0.959111732598511
-5.583059625814891 2.800664819290865 -0.989291556914420
-4.616032011824879 2.313552349335106 -1.003655315680626
nan nan nan
nan nan nan
nan nan nan
-28.002486758869324 14.206472361909961 7.249272677285393
-27.638169126533608 14.009514974479005 6.023076748056013
-23.832798228630576 12.070155162432341 4.231239410408165
-23.755542979406940 12.025820013446491 3.269267006186486
nan nan nan
-24.233655497802729 12.251919711160189 1.423119322158129
-24.479900024855962 12.365687300153079 0.478719508574687
-24.880507892627506 12.628062711609621 -0.487026854038834
-16.152904481519702 8.191291644112717 -0.949164902422029
-10.160707950894329 5.148133684289372 -0.996538762576724
-6.989848829290206 3.540019057859771 -0.962036596840234
-5.555623757399823 2.811217434627706 -0.986162867613615
-4.609680148506305 2.330537011997594 -1.004036933671379
nan nan nan
nan nan nan
nan nan nan
-27.883334578633683 14.268623185591521 7.231276592937885
-22.946340673847455 11.732130317876964 5.009499364615808
-23.823578349068239 12.175404700006442 4.237496789009774
-31.128173513971081 15.894828619695923 4.291507058668863
-24.026675141125761 12.258053078271891 2.359828890635593
-24.290378914765718 12.387248347545343 1.428980949257338
-30.738606758755441 15.662102425587346 0.602177831712030
-26.760451200118240 13.699908890331875 -0.524758956756241
-16.106431685048218 8.238530590182696 -0.948118183297170
-10.169287591343274 5.197170220241100 -0.999153434859153
-6.995127126960939 3.573427264182801 -0.964473983708337
-5.591522552410839 2.853941854229828 -0.994297459795707
-4.603265933659198 2.347505509490800 -1.004418551662132
nan nan nan
nan nan nan
nan nan nan
-27.970160954928524 14.436476572150672 7.266818859524215
-22.791829867970108 11.753667131992339 4.984694195216856
-22.744994651442358 11.724489349128149 4.052904120262301
-30.749545625905501 15.837056662677096 4.246902878982580
-23.484152734598968 12.084763315268338 2.310673051725913
-29.035292617223288 14.934927983544148 1.711176425319291
-27.685093317194273 14.228205310507990 0.543328317205510
-24.542989263827806 12.673006543130755 -0.482140180236394
-16.269271258097845 8.393601415215636 -0.959422749845646
-10.182961222981170 5.249067860029443 -1.002291041598069
-7.002021767950707 3.607824573863097 -0.967155109263250
-5.572744862948950 2.868921688469380 -0.992733115145305
-4.607264426105596 2.369845667207618 -1.007089877597404
-3.989563705653613 2.051237540895952 -1.035674654199154
nan nan nan
nan nan nan
nan nan nan
-27.280939784884744 14.189457117971433 5.977282589165642
-22.668876818523490 11.785588569724265 4.046646741660693
-23.112160559060182 12.005806079659495 3.197851570951070
-23.717695371281476 12.309845104964070 2.337865643463183
-27.644461428194848 14.341772469187417 1.632149131392446
-27.926418039757852 14.475680177254322 0.549052706516939
-24.147431813670639 12.575714459852801 -0.475229027287230
-16.278851533481511 8.470622925860841 -0.961725531920336
-10.187557300437019 5.296528797374351 -1.004557090909508
-7.006999829940773 3.641398052212331 -0.969592496131353
-5.560943371595643 2.887446427694997 -0.992420246215225
-4.600706743890407 2.386817680992560 -1.007471495588157
-3.982379244641161 2.065151220250168 -1.035674654199154
nan nan nan
nan nan nan
-23.694946887873488 12.440125232785890 6.178505658608596
-27.345988840915787 14.344790681499138 6.002469376555347
-23.274901924664761 12.204055145426555 4.162408245790463
-22.802835983928770 11.946383957016202 3.160803290555905
-22.791991968815395 11.930565076151071 2.250709900715524
-27.438501237683248 14.356699553440873 1.622938003093688
-26.606868104981977 13.909734499931561 0.524060860498749
-24.082143000304253 12.648769893385095 -0.474810169532735
-16.252721410163804 8.529251318751710 -0.961934875745307
-10.204297569782719 5.350562192058054 -1.008043320619414
-6.999520985178306 3.668599442785606 -0.970323712191784
-5.559580156164172 2.911422181736491 -0.993984590865627
-4.604523844386927 2.409233829788410 -1.010142821523428
-3.888805115815178 2.033882487552938 -1.013179548764768
nan nan nan
nan nan nan
-23.374099432092294 12.375948592467266 6.106071419109872
-30.093177785980433 15.920070591308869 6.617637577649328
-22.923441993674302 12.116855281453301 4.106717576236140
-22.792589392333479 12.042600273237095 3.165190586918490
-22.630395546164159 11.946801329761842 2.238856719701843
-27.017994563235430 14.250999470917685 1.600852229559166
-28.779880950529748 15.173909864651941 0.567901305469205
-23.903544334683932 12.661617259492562 -0.472157403754268
-16.289930086125310 8.621434161925155 -0.965912408419771
-10.196126213296033 5.391737498256602 -1.009089189532386
-6.993692557487891 3.696720615754045 -0.971298666939025
-5.551130262364358 2.931733509667347 -0.994297459795707
-4.589140645616221 2.421626972543988 -1.008616349560416
-3.902365766590815 2.058354566059744 -1.018578374069021
nan nan nan
nan nan nan
-22.813327063633231 12.181182221130040 5.970650884394865
-23.230025965637772 12.393260001588155 5.117878873989684
nan nan nan
-23.265478059800543 12.396529122084335 3.236849760840717
-23.819635350203782 12.681127164138397 2.360874759548564
-27.103106083186120 14.423114854283021 1.609016638733065
-28.673769996762889 15.246113948570743 0.566854161082968
-23.931518058983958 12.783608775465854 -0.473588501082125
-16.465890426275067 8.788273857659975 -0.978159022180620
-10.237016484387894 5.459171408248867 -1.015015780039227
-6.994760031110792 3.728580871544172 -0.973248576433508
-5.554810833055080 2.958521514056129 -0.996800411236351
-4.580659631382106 2.437631309453048 -1.008616349560416
-3.926125556435359 2.088437035063590 -1.026676612025400
nan nan nan
nan nan nan
-23.247666207523778 12.517578553183572 6.095723670610053
-30.700535412071442 16.516714292218715 6.776390661802613
-23.135388928924634 12.441502185725373 4.160531032209980
-23.302502230147113 12.520886100604768 3.248061740433991
-29.992874452752410 16.102263142750665 2.978286041172975
-26.921366270074781 14.441160063883807 1.601061573384138
nan nan nan
-24.004704045959215 12.930606213127968 -0.475927123544721
-16.493150628126344 8.876933811444298 -0.981613195292654
-10.312654448738032 5.545829087152005 -1.024428600255974
-6.990444667590991 3.757673866809832 -0.974467269867559
-5.554891349028726 2.983501483521675 -0.998677624816834
-4.577312499967929 2.456390968367534 -1.009761203532675
-3.908508007521451 2.096601977082052 -1.023977199373274
nan nan nan
nan nan nan
-23.183279037405864 12.587493489667780 6.090324845305801
-22.677008816631904 12.302363784252274 5.014842016486351
-22.996312186351226 12.470392710255888 4.143323241055555
-23.024776106726812 12.475429419897150 3.215400756401411
-29.880416943980688 16.176506234746888 2.972708073637125
-26.965656094488299 14.586358763468285 1.606713856658375
-34.118130290592852 18.447604230786830 0.677013750515102
-23.959421562209975 13.014319489599989 -0.475927123544721
-16.395358978002566 8.898248844216919 -0.977635662618191
-10.293233064366381 5.581793181909577 -1.024428600255974
-6.980775737677592 3.783944151422396 -0.974954747241180
-5.546180123988455 3.003814246200772 -0.998990493746914
-4.580796743747630 2.478894424082286 -1.012432529467947
-3.906307822931005 2.113013944335687 -1.025326905699337
nan nan nan
nan nan nan
-24.227542135961301 13.253202075735119 6.375562782213822
-22.541775704376349 12.320815369976371 4.993471409004178
-23.706429508532729 12.946643099577440 4.278169749920234
-22.957591759804192 12.532483645278360 3.211500937412446
-29.567081957927858 16.127191469659962 2.946561350812827
-27.362541822393514 14.918542101063244 1.633300522429791
nan nan nan
-23.909646740467362 13.084725912687134 -0.475752599480349
-16.384847343902884 8.959294520924310 -0.978682381743050
-10.289634185798985 5.621744863124734 -1.025823092139936
-6.984533618184146 3.814419372562325 -0.977148395422473
-5.548854127868026 3.027846647597385 -1.001180576257478
-4.567815363007152 2.490453783322705 -1.011287675495687
-3.891094710707493 2.120612787810447 -1.023077395155898
nan nan nan
nan nan nan
-23.327941475311018 12.867093140933301 6.150611727869958
-22.622429050609572 12.467653427652536 5.020947904338400
-23.376795099117086 12.878080245511569 4.227172114317119
-30.558563344741255 16.820554602509528 4.282976204630502
-29.737558377689083 16.355120524627118 2.969221843927218
-27.204396184459817 14.949560884928671 1.626810863855666
-25.436682546307910 13.972374181847409 0.506573549248591
-23.858574364620249 13.165208102318049 -0.475647885041725
-16.582597283637384 9.142760233049316 -0.992394402278701
-10.276928369576677 5.661473596343471 -1.026520338081918
-6.981609547119188 3.844521944246013 -0.978610827543334
-5.552096793077203 3.054815309724846 -1.003683527698121
-4.569416705787519 2.512058091814049 -1.013577383440206
-3.897331547365481 2.141690440803674 -1.026676612025400
nan nan nan
nan nan nan
-22.372201857026486 12.436869259005135 5.909464197613334
-23.787498034892483 13.212775348785067 5.289225351837822
-23.541759125513490 13.065528688902292 4.264403516996694
-22.927302345035876 12.719275411146796 3.219300575390376
-29.592545018816374 16.403415559453443 2.960157646681462
-27.124970014510563 15.023241145856247 1.625031441343406
-27.484336628378422 15.216009572794816 0.548354610259448
-23.748376307884001 13.207320918783253 -0.474321502152491
-16.526000213485045 9.183148049752440 -0.990824323591413
-10.266807281836851 5.700357719535102 -1.027391895509395
-6.989650626114194 3.879212266764153 -0.981535691785058
-5.552301350350633 3.078957828631917 -1.005560741278604
-4.552474961485093 2.522439487018062 -1.011669293486441
-3.905550642912168 2.163100238799733 -1.030725731003589
nan nan nan
nan nan nan
-23.233018468237415 13.021770938487055 6.148812119435206
-22.838516969260080 12.790184052427470 5.088112670710943
-31.536021966604871 17.646563077837435 5.723624206891968
-33.250000662344910 18.598031926159781 4.677832877263181
-23.440946905842438 13.100702416807737 2.349370201505873
-26.995637033607192 15.074987400533894 1.620425877194027
-25.433529786281902 14.196847965325087 0.508423504330943
-23.695152613595216 13.286225730445816 -0.474181882900993
-16.389298550133017 9.182206168958565 -0.984544008842259
-10.290309813147013 5.760491345519805 -1.031749682646777
-6.989925653638251 3.911341896163733 -0.983485601279540
-5.546692500402253 3.101212241740059 -1.006499348068845
-4.550498010166160 2.542145196551356 -1.013195765449453
-3.887767639815459 2.171019269278942 -1.028026318351463
nan nan nan
nan nan nan
-23.722259432590086 13.415943538215775 6.291880989997904
-29.913331834593443 16.903478819457355 6.678696456169821
-30.982955468458595 17.493637921631027 5.635395168609277
-30.538529284625973 17.235676943969242 4.305643902503860
-23.327994739817747 13.155380013367665 2.343094988028042
-26.782690842932059 15.091270706331116 1.611110076982783
-25.262094100504292 14.228650102859744 0.506084881868347
-23.730984933766106 13.426345275108956 -0.475927123544721
-16.317408629445495 9.224428012350906 -0.982345898680056
-10.318423698405788 5.828377506787450 -1.036804715726142
-6.988684398105135 3.945960369515563 -0.985435510774023
-5.546787113024253 3.129281443946111 -1.008689430579409
-4.547544336608873 2.563455341424385 -1.014722237412465
-3.881100654469342 2.186887828359207 -1.028476220460151
nan nan nan
nan nan nan
-23.680363242907234 13.501563616367319 6.293230696323967
-23.023907262710985 13.116632199331814 5.150698021194450
-30.755179913668748 17.506891726519015 5.605046882391472
-29.624134837283716 16.856217446944875 4.184993252532765
-28.523051065204903 16.216520291319505 2.870561543136869
-26.377318161494731 14.984402238652306 1.589861678748148
-26.309517176725347 14.939812781520700 0.528109818792199
-23.652707693513637 13.491266277886227 -0.475298836912979
-16.156703121552916 9.208147627872259 -0.974600177156100
-10.334374160901806 5.885064719408301 -1.040465256921543
-6.983493705349414 3.975241520796394 -0.986654204208074
-5.547849571602081 3.155460622617493 -1.010879513089972
-4.559050947688155 2.590953993408715 -1.019301653301502
-3.892081962660442 2.211010282290295 -1.033425143655716
nan nan nan
nan nan nan
-23.655053559917000 13.596765920280912 6.299079423736908
-29.689043319044245 17.051278097706259 6.655036140743130
-30.675035717077520 17.603325411647493 5.601605324160587
-30.081686788188598 17.255844743984419 4.258114858575852
-29.977050823223585 17.181917715872835 3.022909781459775
-27.753661193856082 15.901104971655563 1.676320678461491
-27.013859051846129 15.464722353366509 0.543328317205510
-23.560398520147306 13.547830027541311 -0.474391311778240
-16.112339902087058 9.257523914262853 -0.973867473768699
-10.339686823478742 5.935982197890418 -1.043079929203973
-6.983348840666575 4.007498580901956 -0.988604113702556
-5.548796704802669 3.181685264642124 -1.013069595600535
-4.555089477167068 2.609780216952115 -1.020446507273762
-3.884340384594267 2.224582713470153 -1.033425143655716
nan nan nan
nan nan nan
nan nan nan
-22.459445888978284 13.003578825428599 5.044608219765092
-30.627407177279991 17.725531592464232 5.604734013461392
-29.928473242481299 17.307082008845832 4.244952969488097
-28.674811475543567 16.568758678356932 2.897405511903148
-27.917633746532758 16.124750741859994 1.689614011347198
-30.667842064598322 17.698950859546748 0.618059521569958
-23.549295055538423 13.651048870857283 -0.475124312848606
-16.116220853435831 9.334731992893296 -0.976065583930902
-10.334423126963475 5.981020285738484 -1.044648732573431
-6.983063703515485 4.039802970414867 -0.990554023197039
-5.559889462476374 3.213886387009375 -1.017136891691581
-4.554452177013770 2.630574166379323 -1.022354597227527
-3.883302110896656 2.242025519070827 -1.035224752090467
nan nan nan
nan nan nan
nan nan nan
-29.980629819117006 17.484186546294563 6.746242840533118
-30.528597540210395 17.789473995929594 5.596286552349219
-30.108952212929150 17.537901677494673 4.278345169581107
-28.543407056479833 16.612659609813136 2.889387183570364
-26.530639114155591 15.435002326731555 1.608597951083121
-30.717545502127738 17.856513105371555 0.620188715155307
-23.530469202605492 13.739079859956862 -0.475612980228850
-16.557775297587099 9.660082278298960 -1.004641016039550
-10.322467317611080 6.017470919086586 -1.045345978515412
-6.992634697482874 4.074713650047656 -0.993722626125572
-5.542936940935316 3.227361598958433 -1.015885415971259
-4.580104795116750 2.664614593908602 -1.029986957042589
-3.899823675118247 2.267929529007133 -1.041523381612095
nan nan nan
nan nan nan
nan nan nan
-29.635081659167586 17.421580298916457 6.682131018086600
-30.509174264038585 17.928268917128477 5.604734013461392
-30.191342831324842 17.727324878881685 4.298819219273172
-28.547108827687904 16.748489271049632 2.895662397048195
-26.504164701614322 15.543683581954321 1.610272701682896
-30.617071024998289 17.941386337494965 0.619420809272066
-23.497877658647440 13.830261708019552 -0.475927123544721
-16.579045767577572 9.750220333598840 -1.007990517239098
-10.325448159457437 6.067598214574481 -1.047786339312347
-7.007466622740691 4.116189817100385 -0.997866183801348
-5.535044806931829 3.248690206743837 -1.016511153831420
-4.579243186325403 2.685551796647529 -1.031895046996354
-3.886839887275423 2.278572012451377 -1.040173675286032
nan nan nan
nan nan nan
nan nan nan
-29.822661724795765 17.679252165799941 6.738992098708809
-30.194868132699970 17.885659756430329 5.558429411809484
-28.706715897618135 16.997398596251124 4.096272370533817
-23.063471542575570 13.645132812962613 2.344489479912005
-27.724325971193569 16.396120673025429 1.688043932659910
-27.490142854985400 16.244675791931051 0.557360051981086
-23.495178766706875 13.944870485527471 -0.476904458305209
-16.555223235279215 9.818051593582110 -1.008723220626499
-10.320280421943856 6.115559167997445 -1.049529454167300
-7.005996537070608 4.149939313067280 -0.999816093295830
-5.546899724977717 3.283041327204645 -1.020891318852547
-4.593027366650881 2.716308812569987 -1.037237698866898
-3.883495003126601 2.295777778062595 -1.041523381612095
nan nan nan
nan nan nan
nan nan nan
-30.310176747903967 18.111538640874837 6.863399563694316
-30.464896532258493 18.196775002354045 5.620377459965415
-28.643799848549428 17.095465490743461 4.095784893160197
-30.664784779695935 18.287135129613048 3.123661820076069
-27.675501750503194 16.497910151214043 1.688567292222340
-29.707923344937758 17.695424406568513 0.603574024227013
-23.230136941144121 13.897444058121637 -0.472506451883014
-16.577423365342316 9.909597947939529 -1.012177393738534
-10.314264686904997 6.160741548017394 -1.051098257536758
-7.006807504430276 4.183528304415366 -1.002009741477123
-5.533709562336500 3.301371549410856 -1.020578449922466
-4.588576767461515 2.735340732536199 -1.038382552839157
-3.885501966102118 2.315304996616126 -1.044222794264221
-3.288263500679479 1.957865620858834 -1.025441056696187
nan nan nan
nan nan nan
-29.758581640925637 17.909047684521795 6.751203874412908
-22.742056647239803 13.675613032826487 4.203081206700923
-28.658006706456131 17.226275934440817 4.105534440632608
-30.571315027929668 18.361837965815528 3.120001278880667
-27.695454002989582 16.627952553260236 1.692963512546747
-29.515001650342974 17.706369334289150 0.600781639197048
-23.021932130791264 13.871281771983300 -0.469155589847055
-16.652297073943707 10.025498271789704 -1.018667052312659
-10.303395647101611 6.198249563198606 -1.051969814964234
-7.007239600868233 4.213704094409691 -1.003959650971605
-5.547015903218568 3.332983409363631 -1.024958614943593
-4.583327192150314 2.751763776066507 -1.039145788820663
-3.879879980341701 2.328503016016223 -1.044672696372909
-3.318545797406143 1.990044024372735 -1.036829094680698
nan nan nan
nan nan nan
-29.638814134125688 17.978196920610802 6.738228862727303
-29.211824320127207 17.712221521437712 5.410755276811505
-30.416042316308570 18.427866435586278 4.366578574206434
-29.332703232749292 17.757520014274110 2.999900665374394
