# This PCD file was generated using the MATLABÂ® pcwrite function
# from Computer Vision ToolboxÂ®.
# .PCD v.7 - Point Cloud Data file format
VERSION .7
FIELDS x y z
SIZE 8 8 8
TYPE F F F
COUNT 1 1 1
WIDTH 1006
HEIGHT 1
VIEWPOINT 0 0 0 1 0 0 0
POINTS 1006
DATA ascii
0.397413859020913 -0.808363779620787 0.142668232116691
0.399510259070733 -0.812269891830965 0.111144841185495
0.398623500146561 -0.809753131211401 0.078963102929378
0.391053716728041 -0.793676789078175 0.046369657231248
0.395205940848347 -0.801751100922156 0.015602451354931
0.381336379143473 -0.777373873677082 -0.015113783974688
0.384663729836929 -0.783465071730138 -0.045741625756333
0.382241211022168 -0.777844554344746 -0.075825496190463
0.385355555842912 -0.783836463042557 -0.107245022196530
0.383741761134090 -0.779866234601288 -0.137662329235403
0.377320364325076 -0.766141026460790 -0.166003825977594
nan nan nan
nan nan nan
0.405332551762831 -0.834008410356455 0.248466283298420
0.403202603575567 -0.828889767604123 0.212803697409296
0.395324902711565 -0.811974401412235 0.175544275746421
0.393583369910286 -0.808039034640079 0.142355363186610
0.400152057175933 -0.820796858240741 0.112119795932736
0.388804757237619 -0.796814891508612 0.077568611045416
0.388142119244001 -0.795104741626556 0.046369657231248
0.384504129714762 -0.786955425592579 0.015288308039060
0.380369339247711 -0.782297017919432 -0.015183593600437
0.384548504493987 -0.790190689376959 -0.046055641493791
0.380396166354913 -0.780965291069778 -0.075999807675958
0.383486692602938 -0.786961322353407 -0.107488760883340
0.374955545084948 -0.768772794509128 -0.135472246724840
0.372059984410280 -0.762160670298571 -0.164858972005335
nan nan nan
nan nan nan
0.404095594907382 -0.838899113120333 0.249501559478830
0.401853878803481 -0.833873055976206 0.213703501626672
0.387228653144389 -0.802808087228672 0.173254567801903
0.389760611623745 -0.807697093873730 0.142042494256530
0.394550948567005 -0.816895423698106 0.111388579872305
0.381545924002632 -0.789265652263739 0.076697053617939
0.383624527283248 -0.792859033834476 0.046160313406276
0.379003394736292 -0.782959695810546 0.015183593600437
0.373160447503926 -0.774678002947245 -0.015009069536064
0.372975870446104 -0.773604031124553 -0.045008922368932
0.380994819694771 -0.789531829207712 -0.076697053617939
0.372832417333334 -0.772272573529868 -0.105295112702047
0.363540983930395 -0.752355724249687 -0.132343557424035
0.368409249013335 -0.761751813425995 -0.164477354014582
nan nan nan
nan nan nan
0.402829412993502 -0.843791300029317 0.250536835659240
0.386342543975199 -0.808893737834939 0.206954969996356
0.381883724325807 -0.798841077749842 0.172109713829643
0.386086559853320 -0.807270637150549 0.141729625326449
0.382268891152539 -0.798571965594110 0.108707454317392
0.384814729677318 -0.803170298546084 0.077917234016406
0.377400132150641 -0.786989735591162 0.045741625756333
0.377133030362261 -0.786080832176833 0.015218498413311
0.377346211461319 -0.790412616506779 -0.015288308039060
0.370273216143398 -0.774901246814078 -0.045008922368932
0.379096146597295 -0.792654341350766 -0.076871365103435
0.367564033700881 -0.768197287582206 -0.104563896641617
nan nan nan
0.369991010669940 -0.771885053656885 -0.166385443968347
nan nan nan
nan nan nan
0.403037644802094 -0.852247713044783 0.252607388020060
0.379347965215065 -0.801430468697915 0.204705459452917
0.379933482823594 -0.801943445061034 0.172491331820396
0.380021935035400 -0.801407024161374 0.140478149606127
0.383733275046812 -0.808868973111452 0.109926147751443
0.382863403526455 -0.806308455097219 0.078091545501902
0.371085097796408 -0.781151509935707 0.045322938106389
0.376962854522923 -0.792810321235681 0.015323212851935
0.370308774771096 -0.782687028678447 -0.015113783974688
0.367566050178404 -0.776189020576454 -0.045008922368932
0.384007098995327 -0.810176331357031 -0.078440168472892
0.364029748630070 -0.767681995852848 -0.104320157954806
nan nan nan
0.364767120029964 -0.767851870846709 -0.165240589996088
nan nan nan
nan nan nan
0.392682128593140 -0.837905851049491 0.247948645208215
0.378203296355692 -0.806278327984052 0.205605263670293
0.387978575994638 -0.826367522641458 0.177452365700187
0.377082078921767 -0.802794491286081 0.140478149606127
0.383441210076151 -0.815592904732222 0.110657363811874
0.374956620367916 -0.796823378523261 0.077045676588930
0.371896754979651 -0.789605285765472 0.045741625756333
0.376750261941100 -0.799548134377681 0.015427927290559
0.365876627761898 -0.780353748048518 -0.015043974348938
0.367399901389669 -0.782891527441871 -0.045322938106389
0.374400241377969 -0.797084953424083 -0.077045676588930
0.363880632417573 -0.774337842397553 -0.105051374015237
nan nan nan
0.353722363703769 -0.751357870287774 -0.161424410088557
nan nan nan
nan nan nan
0.380133489463251 -0.818179539441302 0.241736988125754
0.378814394371715 -0.814596141436897 0.207404872105044
0.373637602783323 -0.802731080868188 0.172109713829643
0.376226579522473 -0.807556347137908 0.141103887466288
0.381573120492776 -0.818659208206920 0.110901102498684
0.371469861896992 -0.796256827241917 0.076871365103435
0.369276284678808 -0.790834198329197 0.045741625756333
0.367325810596052 -0.786299094554973 0.015148688787562
0.366658441643578 -0.788816230599295 -0.015183593600437
0.366486715833593 -0.787727299526702 -0.045532281931361
0.374278177508924 -0.803740602695349 -0.077568611045416
0.362987451261834 -0.779139051180185 -0.105538851388858
nan nan nan
0.358701780083978 -0.768537931603854 -0.164858972005335
nan nan nan
nan nan nan
0.374851584609440 -0.814237004920644 0.240184073855139
0.375968615330848 -0.815913487640262 0.207404872105044
0.370833272071708 -0.804030428982678 0.172109713829643
0.371749489982730 -0.805277719908367 0.140478149606127
0.369557439563506 -0.800162318191475 0.108219976943771
0.365344033607146 -0.790314646629833 0.076174119161453
0.367352212088273 -0.793931022988719 0.045846297668819
0.367099007158238 -0.793020587774022 0.015253403226186
0.363066167353890 -0.788274999826187 -0.015148688787562
0.360390113826862 -0.781746589034370 -0.045113594281418
0.372305083767725 -0.806851264234654 -0.077742922530911
0.356937448884914 -0.773192116554903 -0.104563896641617
0.343858982954465 -0.744179022063500 -0.129840605983392
0.351896330796986 -0.760875799595594 -0.162950882051569
nan nan nan
nan nan nan
0.375357600961307 -0.822505542520862 0.242254626215959
0.368262052343012 -0.806584611602703 0.204705459452917
0.371288497577680 -0.812462507781059 0.173636185792656
0.372223018817981 -0.813755944719824 0.141729625326449
0.370066263431063 -0.808667686731185 0.109194931691012
0.366731642862723 -0.800642158421702 0.077045676588930
0.361249152328979 -0.787946306666620 0.045427610018875
0.365162316146589 -0.796114784753908 0.015288308039060
0.363633213451220 -0.796814378454884 -0.015288308039060
0.358488948899461 -0.784816527552381 -0.045218266193903
0.369486379050373 -0.808145935888189 -0.077742922530911
0.345153347319732 -0.754576084824903 -0.101882771086703
0.344548463970758 -0.752559115345750 -0.131092081703713
0.350056122875007 -0.763884287878500 -0.163332500042322
nan nan nan
nan nan nan
0.376318442462111 -0.832677863876222 0.244842816666985
0.365444303048577 -0.807865172067412 0.204705459452917
0.366830650786367 -0.810176657814357 0.172872949811150
0.366933986193267 -0.809652603822069 0.140791018536208
0.367241231855612 -0.809954532377076 0.109194931691012
0.366404790580271 -0.807360291332385 0.077568611045416
0.355192390326186 -0.781928745322461 0.045008922368932
0.359071715519814 -0.790102537865609 0.015148688787562
0.354258736619249 -0.783502058300165 -0.015009069536064
0.352453287977111 -0.778784744044468 -0.044799578543960
0.369129516466109 -0.814875362066816 -0.078265856987397
0.349072637137057 -0.770240915847442 -0.103832680581186
0.345183590752873 -0.760953002151449 -0.132343557424035
0.347387536442763 -0.765101557934731 -0.163332500042322
nan nan nan
nan nan nan
0.373409561637415 -0.833986387421480 0.244842816666985
0.368057503394025 -0.821648384062134 0.207854774213731
0.367874841855521 -0.820472844686813 0.174781039764915
0.365581614190524 -0.814596454924880 0.141416756396369
0.367522545309171 -0.818538804707297 0.110169886438253
0.358542848280142 -0.797794018455701 0.076522742132444
0.358739711980186 -0.797859596695080 0.045846297668819
0.361918165930823 -0.804178025084167 0.015393022477684
0.353019025874532 -0.788445429166673 -0.015078879161813
0.355314232125375 -0.792829494753619 -0.045532281931361
0.360432167835559 -0.803497738707654 -0.077045676588930
0.347872792196503 -0.775137294350938 -0.104320157954806
0.352105495081158 -0.783836117390334 -0.136097984585001
0.345386061428078 -0.768160241178787 -0.163714118033075
nan nan nan
nan nan nan
0.366435432139151 -0.826519068231314 0.242254626215959
0.367558518246127 -0.828271827956732 0.209204480539794
0.366602540026708 -0.825340405468332 0.175544275746421
0.360186919273961 -0.810515436415107 0.140478149606127
0.367890179436147 -0.827071726123128 0.111144841185495
0.357376598644241 -0.802680982687772 0.076871365103435
0.357577830459558 -0.802755861423902 0.046055641493791
0.352594409475705 -0.790825363743757 0.015113783974688
0.348643091235484 -0.786016999030827 -0.015009069536064
0.352544576031588 -0.794064942692240 -0.045532281931361
0.353579707035263 -0.795647468633461 -0.076174119161453
0.353229540115387 -0.794485820271990 -0.106757544822909
0.347760965068728 -0.781450946343909 -0.135472246724840
0.341104896570625 -0.765774418203010 -0.162950882051569
nan nan nan
nan nan nan
0.362426014890839 -0.824065900822727 0.241219350035549
0.365739464645998 -0.831206162054122 0.209654382648482
0.356885959074613 -0.810317628230358 0.172109713829643
0.360967843678468 -0.818810679665905 0.141729625326449
0.361284672478585 -0.819142006902692 0.109926147751443
0.357267109488504 -0.809267776989396 0.077394299559920
0.359088844231642 -0.813010208182522 0.046579001056220
0.350916786451296 -0.793758103086018 0.015148688787562
0.349392234510728 -0.794430351693349 -0.015148688787562
0.345219960610976 -0.784200731373480 -0.044904250456446
0.350274983071455 -0.794931107371897 -0.075999807675958
0.349931092639173 -0.793775181967008 -0.106513806136099
0.345304252424701 -0.782539611537168 -0.135472246724840
0.341077073446746 -0.772229900604607 -0.164095736023829
nan nan nan
nan nan nan
0.363259485842497 -0.834244825664104 0.243807540486575
0.359721315208557 -0.825332035135669 0.207854774213731
0.355625338220927 -0.815157384827521 0.172872949811150
0.359544744420297 -0.823749068182630 0.142355363186610
0.356038942853595 -0.814940941458146 0.109194931691012
0.356834926462240 -0.815986360118795 0.077917234016406
0.349844249911475 -0.799620350214428 0.045741625756333
0.348946090621232 -0.796809942411323 0.015183593600437
0.349012996691236 -0.801144969297457 -0.015253403226186
0.341682163208814 -0.783570224745191 -0.044799578543960
0.350686076926221 -0.803453071072868 -0.076697053617939
0.343980519139359 -0.787715020359608 -0.105538851388858
0.328329766558608 -0.751159757594505 -0.129840605983392
0.339166338953752 -0.775214418426973 -0.164477354014582
nan nan nan
nan nan nan
0.362021780469646 -0.838992387088325 0.244842816666985
0.351431538177839 -0.814058688820486 0.204705459452917
0.357450294216262 -0.827206945384695 0.175162657755668
0.356811117172286 -0.824936832269158 0.142355363186610
0.357133975096711 -0.825287922617533 0.110413625125064
0.356360162978862 -0.822711719991652 0.078440168472892
0.344668422020422 -0.795338928451214 0.045427610018875
0.346162578969093 -0.798023137137542 0.015183593600437
0.342253089948601 -0.793178069429468 -0.015078879161813
0.342112620499282 -0.792092332558226 -0.045218266193903
0.345507461060023 -0.799185896973810 -0.076174119161453
0.341228784941711 -0.788910937416084 -0.105538851388858
0.324136063224669 -0.748675717766450 -0.129214868123231
0.329432458601106 -0.760181211510370 -0.161042792097804
nan nan nan
nan nan nan
0.353632216102238 -0.827877696826679 0.241219350035549
0.347821674985027 -0.813488629118200 0.204255557344229
0.357650478356925 -0.835669244839319 0.176689129718681
0.352230076229010 -0.822607249362981 0.141729625326449
0.353468995806598 -0.824704956409053 0.110169886438253
0.350344092595924 -0.816626631196590 0.077742922530911
0.345041131790563 -0.803878556974093 0.045846297668819
0.348111054254967 -0.810250423489243 0.015393022477684
0.337910619375655 -0.790690294075261 -0.015009069536064
0.338560095746579 -0.791445402525707 -0.045113594281418
0.343499923127872 -0.802218623536561 -0.076348430646949
0.344726433726885 -0.804694881413886 -0.107488760883340
0.341761736531802 -0.797005671997762 -0.137349460305323
0.329874335565602 -0.768542879166724 -0.162569264060816
nan nan nan
nan nan nan
0.350131958383843 -0.827266763254076 0.240701711945344
0.349539157098795 -0.825464728530827 0.206954969996356
0.347069686903315 -0.818836720999020 0.172872949811150
0.350271799394395 -0.825589241920216 0.142042494256530
0.352139359540918 -0.829588343274132 0.110657363811874
0.342816627086384 -0.806842191608397 0.076697053617939
0.347702446546592 -0.817944622407971 0.046579001056220
0.341365885265203 -0.802260387706603 0.015218498413311
0.338266197319294 -0.799231191195115 -0.015148688787562
0.338132695890874 -0.798139469151565 -0.045427610018875
0.339141868192141 -0.799744223156605 -0.075999807675958
0.338038832097640 -0.796756186520310 -0.106270067449289
0.320445781210845 -0.754556769462734 -0.129840605983392
0.331029864214622 -0.778723589609568 -0.164477354014582
nan nan nan
nan nan nan
0.347843968638158 -0.830326320581543 0.241219350035549
0.351177212980690 -0.837462599116760 0.209654382648482
0.341169923169496 -0.812802231821221 0.171346477848137
0.344948950203474 -0.821403624715293 0.141103887466288
0.349241410462931 -0.830812484891789 0.110657363811874
0.344634471878888 -0.819052573885897 0.077742922530911
0.344845168670518 -0.819153347246538 0.046579001056220
0.336233829550765 -0.797918783711471 0.015113783974688
0.339339210275996 -0.809628371240261 -0.015323212851935
0.332253875477863 -0.791947952290508 -0.045008922368932
0.334805292188621 -0.797249217356297 -0.075651184704967
0.338331313755286 -0.805251778853476 -0.107245022196530
0.340784146407666 -0.810297537226847 -0.139226673885805
0.332118290863409 -0.788921621524866 -0.166385443968347
nan nan nan
nan nan nan
0.349531795561072 -0.842180937213185 0.244325178576780
0.345262497787003 -0.831484335666306 0.207854774213731
0.342098237115112 -0.823052641632665 0.173254567801903
0.346017229548527 -0.831662102298921 0.142668232116691
0.341762035865375 -0.821030558343689 0.109194931691012
0.345604884966207 -0.829446217080027 0.078614479958388
0.335835667590239 -0.805604188201244 0.045741625756333
0.336526862178865 -0.806469469181609 0.015253403226186
0.334211392810227 -0.805267124761648 -0.015218498413311
0.331019936740238 -0.796791760677096 -0.045218266193903
0.336610476188472 -0.809451017224944 -0.076697053617939
0.330180606548118 -0.793598335373152 -0.105538851388858
0.306056859342805 -0.734892831887193 -0.126086178822426
0.334650345825526 -0.802760832744480 -0.169056769903619
nan nan nan
nan nan nan
0.348058507310070 -0.846969611456297 0.245360454757190
0.339393834067882 -0.825475071732939 0.206055165778980
0.348189414073446 -0.846027899168698 0.177833983690940
0.340854762689573 -0.827385486974880 0.141729625326449
0.341163401866979 -0.827724456124789 0.109926147751443
0.345747005929538 -0.838014712296547 0.079311725900369
0.336069790230353 -0.814156202187738 0.046160313406276
0.337527897028538 -0.816879977589737 0.015427927290559
0.332918626226834 -0.810128049106152 -0.015288308039060
0.327476790827185 -0.796095292713467 -0.045113594281418
0.333782914103429 -0.810621075607432 -0.076697053617939
0.328164559360078 -0.796581487116597 -0.105782590075668
0.350180469272327 -0.849180799012820 -0.145484052487415
0.322857088320513 -0.782147364975145 -0.164477354014582
nan nan nan
nan nan nan
0.343643793377106 -0.844600586305040 0.244325178576780
0.342388230167904 -0.841094132471969 0.209654382648482
0.348197487170365 -0.854510583243912 0.179360455653952
0.335582735590924 -0.823141613984404 0.140791018536208
0.343522367703056 -0.841775865857891 0.111632318559115
0.339805882874353 -0.831838761723000 0.078614479958388
0.336248263580653 -0.822719576708614 0.046579001056220
0.337703125021914 -0.825456389426537 0.015567546542057
0.325566960017928 -0.800171720287532 -0.015078879161813
0.330722742702148 -0.812031388466054 -0.045950969581305
0.325686150899703 -0.798866555014758 -0.075476873219472
0.326881427865061 -0.801398281057068 -0.106270067449289
0.327800017643443 -0.802848848904198 -0.137349460305323
0.317153920643489 -0.776000258156580 -0.162950882051569
nan nan nan
nan nan nan
0.336938391860191 -0.836894108392786 0.241736988125754
0.343092347087463 -0.851321549956374 0.211903893191921
0.347416051727236 -0.861182861069009 0.180505309626211
0.340100888236636 -0.842625957063251 0.143919707837012
0.339838300064428 -0.841129308776808 0.111388579872305
0.333165118548478 -0.823784584572285 0.077742922530911
0.335621855569224 -0.829442592974498 0.046893016793678
0.331066103168800 -0.817363010046104 0.015393022477684
0.330990583819688 -0.821706842034337 -0.015462832103433
0.329379996141241 -0.816885575590750 -0.046160313406276
0.324387036688824 -0.803693688264200 -0.075825496190463
0.324082034347611 -0.802534427783281 -0.106270067449289
0.335359878044699 -0.829627907861512 -0.141729625326449
0.320334450315589 -0.791661903656990 -0.166003825977594
nan nan nan
nan nan nan
0.337739042479459 -0.846979070755874 0.244325178576780
0.343007070673454 -0.859754012994714 0.213703501626672
0.334213956244068 -0.836865027814915 0.175162657755668
0.339356356014826 -0.849311092777958 0.144858314627254
0.334688542145028 -0.836781051166338 0.110657363811874
0.334730874154478 -0.836040410644481 0.078788791443883
0.334952581839601 -0.836171192997337 0.047207032531135
0.326722471787943 -0.814801586631169 0.015323212851935
0.329601630804803 -0.826572139629523 -0.015532641729182
0.323564834803328 -0.810610573180404 -0.045741625756333
0.327493754332018 -0.819622421798785 -0.077219988074425
0.327173713864274 -0.818406865529944 -0.108219976943771
0.295766319898477 -0.739094418544526 -0.126086178822426
0.316108995246260 -0.789130312776125 -0.165240589996088
nan nan nan
nan nan nan
0.341164002194218 -0.864325245782377 0.248983921388625
0.338572284113133 -0.857321057013852 0.212803697409296
0.342117209991659 -0.865413042451301 0.180886927616964
0.340748900559775 -0.861511968302763 0.146735528207737
0.331765592147409 -0.837944234243118 0.110657363811874
0.334746885404604 -0.844612628707747 0.079486037385864
0.327614485079514 -0.826195585697896 0.046579001056220
0.327565089018847 -0.825230230061010 0.015497736916308
0.328182726640005 -0.831437707496388 -0.015602451354931
0.320733304591160 -0.811735086711916 -0.045741625756333
0.320966739090498 -0.811496931316046 -0.076348430646949
0.321393191242633 -0.812160650263815 -0.107245022196530
0.301914659452773 -0.762160714971181 -0.129840605983392
0.309010423715223 -0.779278876958662 -0.162950882051569
nan nan nan
nan nan nan
0.336738857806940 -0.861912066850377 0.247948645208215
0.332030280398410 -0.849422643500755 0.210554186865858
0.334801937898001 -0.855632336640578 0.178597219672446
0.333567461877338 -0.851601325186887 0.144858314627254
0.330287227883219 -0.842793670701833 0.111144841185495
0.333251845980030 -0.849485511445962 0.079834660356855
0.324872920450465 -0.827277451776966 0.046579001056220
0.324682502309780 -0.826368618017609 0.015497736916308
0.321640006417131 -0.823265258183233 -0.015427927290559
0.318625321416621 -0.814709777492708 -0.045846297668819
0.321037447001999 -0.820033487938994 -0.077045676588930
0.317832271974181 -0.811429215778556 -0.107001283509719
nan nan nan
0.300549926780254 -0.765732584454641 -0.159897938125545
nan nan nan
nan nan nan
0.332184722290075 -0.859536560288395 0.246913369027805
0.329063219203659 -0.850576470495500 0.210554186865858
0.329686176353837 -0.851303519920242 0.177452365700187
0.324734331853411 -0.838082671511425 0.142355363186610
0.332368323796257 -0.856896695307541 0.112851011993167
0.327399976601360 -0.843214400352104 0.079137414414874
0.326178011959723 -0.839632896326488 0.047207032531135
0.323970256470177 -0.833088132453203 0.015602451354931
0.315158383674241 -0.815057376440370 -0.015253403226186
0.316500470195202 -0.817679619876119 -0.045950969581305
0.316013494555921 -0.815575711503896 -0.076522742132444
0.315715454214018 -0.814384588007719 -0.107245022196530
nan nan nan
0.307828060514506 -0.792397269415804 -0.165240589996088
nan nan nan
nan nan nan
0.328250858656674 -0.856910343763503 0.245878092847395
0.331968741527905 -0.866163422407653 0.214153403735359
0.327713352471733 -0.854168035492050 0.177833983690940
0.323515642703716 -0.842787063064838 0.142981101046771
0.329674667691002 -0.857936630862062 0.112851011993167
0.323318715355744 -0.840519681294569 0.078788791443883
0.319379103810309 -0.829413880225023 0.046579001056220
0.319194717427111 -0.828503803562241 0.015497736916308
0.316888193796502 -0.827247709852213 -0.015462832103433
0.320366020792864 -0.835453564058071 -0.046893016793678
0.309879690131037 -0.807264192131069 -0.075651184704967
0.313155435791602 -0.815372416904225 -0.107245022196530
nan nan nan
nan nan nan
nan nan nan
nan nan nan
0.327311942589845 -0.863470201544112 0.247431007118010
0.326179015539239 -0.860028555016216 0.212353795300609
0.323336063140584 -0.851635920202037 0.177070747709434
0.321974735907030 -0.847604474537952 0.143606838906932
0.318916655445807 -0.838672023499916 0.110169886438253
0.318256349962901 -0.836057026367412 0.078265856987397
0.319326745001363 -0.837989049560382 0.046997688706164
0.315588365721830 -0.827744455882590 0.015462832103433
0.314707430334818 -0.830218678085797 -0.015497736916308
0.308236137173549 -0.812291385552286 -0.045532281931361
0.311304992421677 -0.819516176569851 -0.076697053617939
0.313128322942890 -0.823882934621942 -0.108219976943771
nan nan nan
nan nan nan
nan nan nan
nan nan nan
0.326179350244381 -0.870090821905447 0.248983921388625
0.323174968452354 -0.861161892670157 0.212353795300609
0.321051763035531 -0.854597228733621 0.177452365700187
0.323334262858078 -0.859761213904107 0.145484052487415
0.314589027355753 -0.836064299566212 0.109682409064633
0.318847564447395 -0.846485381023023 0.079137414414874
0.314140166293901 -0.833546993635626 0.046683672968706
0.313402938166486 -0.830711994917063 0.015497736916308
0.316021124012688 -0.842546102074237 -0.015707165793555
0.305398833218968 -0.813362381703639 -0.045532281931361
0.304236417127086 -0.809407870450003 -0.075651184704967
0.304660427538414 -0.810106595860344 -0.106270067449289
nan nan nan
nan nan nan
nan nan nan
nan nan nan
0.323811988393851 -0.873035376138935 0.249501559478830
0.320166983580467 -0.862284737338202 0.212353795300609
0.322170792582107 -0.866754156245540 0.179742073644705
0.314672419955380 -0.846128638484054 0.142981101046771
0.317902075776068 -0.853900473142142 0.111876057245925
0.315195041731576 -0.845726264250788 0.078963102929378
0.307883554357326 -0.825227812438804 0.046160313406276
0.314697266359294 -0.843041467241512 0.015707165793555
0.307512329934298 -0.828645971448541 -0.015427927290559
0.303948878457940 -0.818167943002736 -0.045741625756333
0.305576150391580 -0.821669506722861 -0.076697053617939
0.301830771707509 -0.811165123766285 -0.106270067449289
nan nan nan
nan nan nan
nan nan nan
nan nan nan
0.316618983210903 -0.863333981287787 0.246395730937600
0.317676021022735 -0.865281764534591 0.212803697409296
0.318314550829454 -0.866086412361867 0.179360455653952
0.309670680702852 -0.841660263609027 0.142042494256530
0.316141786682477 -0.858785658241341 0.112363534619546
0.310715288065117 -0.843136865107607 0.078614479958388
0.306930731523768 -0.831972152645102 0.046474329143734
0.310220338929185 -0.840437275712318 0.015637356167806
0.304473125121048 -0.829767494626380 -0.015427927290559
0.300948101473774 -0.819276475856898 -0.045741625756333
0.299811960162881 -0.815304125941056 -0.075999807675958
0.299541124363006 -0.814128935683868 -0.106513806136099
nan nan nan
nan nan nan
nan nan nan
nan nan nan
0.312944625485618 -0.862617890399564 0.245878092847395
0.313988458830107 -0.864553707610419 0.212353795300609
0.308581120557747 -0.848741361834092 0.175544275746421
0.304703995645920 -0.837167347654764 0.141103887466288
0.311783605038464 -0.856153450874506 0.111876057245925
0.307770298189838 -0.844216327189311 0.078614479958388
0.304709477222914 -0.834914684953584 0.046579001056220
0.303169354295810 -0.830244736011846 0.015427927290559
0.299527953025474 -0.825186163543878 -0.015323212851935
0.299450699493854 -0.824076323508436 -0.045950969581305
0.294920859514597 -0.810728640318191 -0.075476873219472
0.295339576026284 -0.811438816203517 -0.106026328762478
nan nan nan
nan nan nan
nan nan nan
nan nan nan
0.312845580789887 -0.870869170380746 0.247948645208215
0.310460616952498 -0.863756299757971 0.211903893191921
0.305764896092684 -0.849759987037572 0.175544275746421
0.307281848227369 -0.853040996417599 0.143606838906932
0.303558159912879 -0.842242652440990 0.109926147751443
0.307673909314975 -0.852728805460180 0.079311725900369
0.301260610070751 -0.834042074208753 0.046474329143734
0.300414496608067 -0.831245516852415 0.015427927290559
0.299494126091705 -0.833702686369612 -0.015462832103433
0.294012751910719 -0.817547131984456 -0.045532281931361
0.293580560566156 -0.815451377204755 -0.075825496190463
0.291301620048034 -0.808678500397353 -0.105538851388858
nan nan nan
nan nan nan
nan nan nan
nan nan nan
0.310298038641041 -0.873830437372945 0.248466283298420
0.305485413539637 -0.859326245676096 0.210554186865858
0.300822055514555 -0.845273288706579 0.174399421774162
0.302313403429873 -0.848526005288786 0.142668232116691
0.300616335025984 -0.843297136931030 0.109926147751443
0.304025795506124 -0.851921114485723 0.079137414414874
0.299019378200204 -0.836969418868675 0.046579001056220
0.298857282013383 -0.836055108912114 0.015497736916308
0.297251621643279 -0.836627332556685 -0.015497736916308
0.288479881149481 -0.811041381054625 -0.045113594281418
0.292069015770036 -0.820225087154190 -0.076174119161453
0.283147200922580 -0.794730768076153 -0.103588941894375
nan nan nan
nan nan nan
nan nan nan
nan nan nan
0.310754951914108 -0.883913463564873 0.251054473749445
0.301340797213549 -0.856657903582864 0.209654382648482
0.301277958219812 -0.855525133002654 0.176307511727927
0.298184340173241 -0.845797865391509 0.142042494256530
0.297818208054384 -0.844289379888083 0.109926147751443
0.303189353751408 -0.858560681949445 0.079660348871360
0.292103682529370 -0.826709106667708 0.045950969581305
0.296083180143994 -0.837041558458296 0.015497736916308
0.292485930830637 -0.831948937811172 -0.015393022477684
0.287114950904292 -0.815761506966730 -0.045322938106389
0.288023200867005 -0.817430810460307 -0.075825496190463
0.281170245936558 -0.797537502092097 -0.103832680581186
nan nan nan
nan nan nan
nan nan nan
nan nan nan
0.301806730065757 -0.868622957020330 0.246395730937600
0.299629133601700 -0.861385695661562 0.210554186865858
0.295707187193772 -0.849155373050564 0.174781039764915
0.291182566662568 -0.835692770678797 0.140165280676047
0.297484522272631 -0.852821144480366 0.110901102498684
0.298219954121682 -0.853970800790865 0.079137414414874
0.290533763058514 -0.831494653013051 0.046160313406276
0.294480094543860 -0.841845072095870 0.015567546542057
0.285640239792640 -0.821631980814148 -0.015183593600437
0.286891673383330 -0.824303870800374 -0.045741625756333
0.282545844896266 -0.810905414673288 -0.075128250248481
0.285572942477329 -0.819133019495150 -0.106513806136099
nan nan nan
nan nan nan
nan nan nan
nan nan nan
0.298772831401657 -0.869671167161452 0.246395730937600
0.300270881889549 -0.873535517183987 0.213253599517984
0.295787136493200 -0.859515515464618 0.176689129718681
0.292767800534284 -0.849777597693847 0.142355363186610
0.298238406222326 -0.865166047150354 0.112363534619546
0.291188150285424 -0.843757768352077 0.078091545501902
0.288788014709254 -0.836329682271617 0.046369657231248
0.288779213594991 -0.835358931750284 0.015427927290559
0.285875474387005 -0.832129401815486 -0.015358117664809
0.285167691105048 -0.829127189485639 -0.045950969581305
0.278923171630451 -0.810051709084997 -0.074953938762986
0.277395868411580 -0.805159564128320 -0.104563896641617
nan nan nan
nan nan nan
nan nan nan
nan nan nan
0.298688187242128 -0.879907025595292 0.248983921388625
0.294711660205104 -0.867197928384359 0.211453991083233
0.288358509341822 -0.847532402953752 0.174017803783409
0.289651243475195 -0.850844937532851 0.142355363186610
0.293935830021123 -0.862443897099921 0.111876057245925
0.290171298037348 -0.850425999917802 0.078614479958388
0.289738706650671 -0.848673493827087 0.046997688706164
0.285861507415865 -0.836361870028426 0.015427927290559
0.284898393555292 -0.838802602626479 -0.015462832103433
0.279056819452238 -0.820662917259683 -0.045427610018875
0.276093864190318 -0.811020397536568 -0.074953938762986
0.270743316321058 -0.794848504232820 -0.103101464520755
0.288821554765425 -0.846953849278523 -0.141729625326449
nan nan nan
nan nan nan
nan nan nan
0.297768078282579 -0.886334849553912 0.250536835659240
0.288108763463648 -0.857087432179179 0.208754578431107
0.289929792917547 -0.861508947497380 0.176689129718681
0.290761119882929 -0.862982580915484 0.144232576767093
0.287269354720920 -0.852127425462277 0.110413625125064
0.289898143441716 -0.858934640449290 0.079311725900369
0.283088653017339 -0.838276010286042 0.046369657231248
0.284367393952128 -0.841093933759689 0.015497736916308
0.281478428395604 -0.837847165900475 -0.015427927290559
0.274423726849189 -0.815904640110113 -0.045113594281418
0.277217829840380 -0.823260775241847 -0.075999807675958
0.265570733590883 -0.788217204494726 -0.102126509773514
0.269595703128085 -0.799241217639601 -0.133595033144357
nan nan nan
nan nan nan
nan nan nan
0.296951527525537 -0.894754322603659 0.252607388020060
0.286344159639517 -0.861786552503938 0.209654382648482
0.288160197839607 -0.866241512679025 0.177452365700187
0.284476913220019 -0.854671083744798 0.142668232116691
0.284293124774065 -0.853124991190001 0.110413625125064
0.286898135864751 -0.859941340890200 0.079311725900369
0.278895964695726 -0.835470087042424 0.046160313406276
0.285232799755172 -0.853460915851781 0.015707165793555
0.274770831167112 -0.827437845185835 -0.015218498413311
0.273464322657060 -0.822543370577922 -0.045427610018875
0.274342424544298 -0.824223430465534 -0.075999807675958
0.265326723895871 -0.796672967785627 -0.103101464520755
0.266804188171345 -0.800177413011257 -0.133595033144357
nan nan nan
nan nan nan
nan nan nan
0.292175511323352 -0.890227567419324 0.251054473749445
0.285766272063048 -0.870186673884495 0.211453991083233
0.285747887999615 -0.869107138820278 0.177833983690940
0.278552987033649 -0.846228058124128 0.141103887466288
0.283797434609219 -0.861653991102726 0.111388579872305
0.280150967040700 -0.849584540405597 0.078265856987397
0.277229531317211 -0.840231897665101 0.046369657231248
0.282251927465590 -0.854451364551952 0.015707165793555
0.270633700175230 -0.824591970345019 -0.015148688787562
0.271838409619977 -0.827287826272777 -0.045636953843847
0.270218430250000 -0.821390831581386 -0.075651184704967
0.263785543546538 -0.801365408620226 -0.103588941894375
0.265864289425295 -0.806732222818905 -0.134533639934599
nan nan nan
nan nan nan
nan nan nan
0.288315009523707 -0.889454748293132 0.250536835659240
0.283930106403625 -0.874886027033838 0.212353795300609
0.281499039134289 -0.866364958474253 0.177070747709434
0.279114052263140 -0.858514851690233 0.142981101046771
0.284474466055196 -0.873965060660167 0.112851011993167
0.278418327863821 -0.854345947640876 0.078614479958388
0.276771588934015 -0.848789925919376 0.046788344881192
0.274923453109396 -0.842124691333621 0.015462832103433
0.270221464182456 -0.833140221050690 -0.015288308039060
0.271416401901249 -0.835830135054710 -0.046055641493791
0.266733582026623 -0.820434298300759 -0.075476873219472
0.276952891244326 -0.851362048761828 -0.109926147751443
0.259987966751985 -0.798264006238408 -0.132969295284196
nan nan nan
nan nan nan
nan nan nan
0.286543075645520 -0.894085308202827 0.251572111839650
0.280874454455828 -0.875871797956509 0.212353795300609
0.275472357865372 -0.857995934361034 0.175162657755668
0.278683659230429 -0.866958120024873 0.144232576767093
0.276559441968499 -0.859834763499737 0.110901102498684
0.275434407752867 -0.855312604003180 0.078614479958388
0.273807072990643 -0.849750867939289 0.046788344881192
0.273210125110694 -0.846885449501827 0.015532641729182
0.270973418765423 -0.845504125639285 -0.015497736916308
0.267886935885160 -0.834870707341321 -0.045950969581305
0.263868106849901 -0.821360373889842 -0.075476873219472
0.280054326983159 -0.871222135867663 -0.112363534619546
0.259620626576124 -0.806688238966686 -0.134220771004518
nan nan nan
nan nan nan
nan nan nan
0.283420389780636 -0.895080083121690 0.251572111839650
0.277226788234362 -0.874989170181761 0.211903893191921
0.275443859913131 -0.868309063837167 0.177070747709434
0.275655712805605 -0.867925625728817 0.144232576767093
0.272353928041252 -0.857011183863573 0.110413625125064
0.273655322831355 -0.860066039709644 0.078963102929378
0.272051029388654 -0.854507726509744 0.046997688706164
0.271466895711330 -0.851644461054360 0.015602451354931
0.269831356430763 -0.852164070234395 -0.015602451354931
0.261349588847382 -0.824377476457666 -0.045322938106389
0.265821576644097 -0.837468615900071 -0.076871365103435
0.263791850842747 -0.830571240024738 -0.107001283509719
0.258000395045850 -0.811354555791236 -0.134846508864679
nan nan nan
nan nan nan
nan nan nan
0.281290684269983 -0.899800565937035 0.252607388020060
0.272272593391613 -0.870419766136468 0.210554186865858
0.275193328794174 -0.878680378440256 0.178978837663199
0.270548939148282 -0.863322714686700 0.143293969976851
0.271588134714223 -0.865579845743003 0.111388579872305
0.271695450839993 -0.864864863506177 0.079311725900369
0.262928025811792 -0.836445671659105 0.045950969581305
0.268343639330030 -0.852633716635011 0.015602451354931
0.263722915670961 -0.843604292787516 -0.015427927290559
0.261309322044930 -0.834860200993245 -0.045846297668819
0.261558703844111 -0.834634838944505 -0.076522742132444
0.265497516636783 -0.846685718671729 -0.108951193004202
0.257983424511716 -0.821718097476558 -0.136410853515081
nan nan nan
nan nan nan
nan nan nan
0.274572940534896 -0.889749780637035 0.249501559478830
0.268082035947410 -0.867641090450755 0.209654382648482
0.274445376448466 -0.887137852051644 0.180505309626211
0.265197193069754 -0.856713708664281 0.142042494256530
0.270328051625173 -0.872210923953914 0.112119795932736
0.266903371265905 -0.860099364463029 0.078788791443883
0.261191224396960 -0.841173210322494 0.046160313406276
0.266553076224162 -0.857384299944424 0.015672260980681
0.258416611408246 -0.836877005649924 -0.015288308039060
0.259573403222564 -0.839583543327316 -0.046055641493791
0.258054525473949 -0.833639477844088 -0.076348430646949
0.231998800225963 -0.749004231014844 -0.096276781290067
0.255113521348538 -0.822613621494585 -0.136410853515081
nan nan nan
nan nan nan
nan nan nan
0.270648656062850 -0.886912515998755 0.248466283298420
0.269187101866686 -0.881571829494084 0.212803697409296
0.268058012167005 -0.876778251002103 0.178215601681693
0.265244139601895 -0.867033230174028 0.143606838906932
0.268596967048951 -0.876898666489243 0.112607273306356
0.262297169132507 -0.855265251658865 0.078265856987397
0.261916008513430 -0.853490981362821 0.046788344881192
0.261359126310538 -0.850617507540907 0.015532641729182
0.257974618318069 -0.845379840878149 -0.015427927290559
0.258538642661640 -0.846169974141681 -0.046369657231248
0.253540106017959 -0.828774944582588 -0.075825496190463
0.209177076833296 -0.683334180894104 -0.087745927251706
0.254699685259921 -0.831009719219926 -0.137662329235403
nan nan nan
nan nan nan
nan nan nan
0.268665901019258 -0.891551235458256 0.249501559478830
0.266108201932499 -0.882506096994908 0.212803697409296
0.266130737698211 -0.881467529816576 0.178978837663199
0.263358566304867 -0.871735756610321 0.144232576767093
0.262085884611394 -0.866430501174396 0.111144841185495
0.262775307152829 -0.867616728795291 0.079311725900369
0.261252266603144 -0.862045677023163 0.047207032531135
0.258388324814789 -0.851524638892099 0.015532641729182
0.259637905293444 -0.861592388010460 -0.015707165793555
0.252121757181274 -0.835594592627905 -0.045741625756333
0.251221793706216 -0.831562168211282 -0.075999807675958
0.258488151286691 -0.855075227559638 -0.109682409064633
0.248363767813139 -0.820549718910586 -0.135785115654920
nan nan nan
nan nan nan
nan nan nan
0.268857798300480 -0.903593377471693 0.252607388020060
0.261357818161329 -0.877826463796189 0.211453991083233
0.259686946848982 -0.871102543375640 0.176689129718681
0.262726349940212 -0.880175695823812 0.145484052487415
0.256787425942542 -0.859731826792510 0.110169886438253
0.260886895634695 -0.872346408546390 0.079660348871360
0.254954593642495 -0.851427361459094 0.046579001056220
0.256562304713851 -0.856252502076131 0.015602451354931
0.254347659870347 -0.854826835922422 -0.015567546542057
0.249203451721942 -0.836469571068211 -0.045741625756333
0.251734783777184 -0.843889543930726 -0.077045676588930
0.224841590102987 -0.753255632958263 -0.096520519976877
0.247760656051662 -0.828982285659413 -0.137036591375242
nan nan nan
nan nan nan
nan nan nan
0.264455861421063 -0.900865456050226 0.251572111839650
0.258292039691891 -0.878733424814815 0.211453991083233
0.260524806108112 -0.885187354377556 0.179360455653952
0.258382457139450 -0.877342905895940 0.144858314627254
0.259399546179527 -0.879663275032193 0.112607273306356
0.260097056427936 -0.880895100561547 0.080357594813341
0.249568583261775 -0.844694470039283 0.046160313406276
0.254139137500825 -0.859060400601971 0.015637356167806
0.248544245822008 -0.846116311583562 -0.015393022477684
0.247409259041115 -0.841166551246104 -0.045950969581305
0.248224658186283 -0.842851892265443 -0.076871365103435
0.222210867449866 -0.754035887481870 -0.096520519976877
0.245983565536401 -0.833631314548274 -0.137662329235403
nan nan nan
nan nan nan
nan nan nan
0.261624408741581 -0.901691821685856 0.251572111839650
0.255919989009757 -0.881456578213217 0.211903893191921
0.258684105698309 -0.889816828999475 0.180123691635458
0.254368113247398 -0.874401410544427 0.144232576767093
0.259811974117177 -0.891953945228723 0.114069705427218
0.254943024115925 -0.874101986768318 0.079660348871360
0.249153249889010 -0.853143044706073 0.046579001056220
0.254654470798212 -0.871414929815997 0.015846785045053
0.246294283325738 -0.848856351251835 -0.015427927290559
0.246847359964213 -0.849654185988014 -0.046369657231248
0.243758715523113 -0.837931146183426 -0.076348430646949
0.227476668547299 -0.781452358394683 -0.099932861592221
0.243770559685444 -0.836338901954131 -0.137975198165484
nan nan nan
nan nan nan
nan nan nan
0.256347954089086 -0.895170764855495 0.249501559478830
0.256062483953247 -0.893584593327627 0.214603305844047
0.253952062493796 -0.885053063733400 0.178978837663199
0.252404633822664 -0.879081321328237 0.144858314627254
0.256696890952493 -0.892855424175197 0.114069705427218
0.250787921090307 -0.871157315741483 0.079311725900369
0.246173706985758 -0.854007554211024 0.046579001056220
0.247177437587484 -0.856927631624950 0.015567546542057
0.244430760655271 -0.853555752951123 -0.015497736916308
0.244430528707654 -0.852430556330741 -0.046474329143734
0.238083077695198 -0.829201838953698 -0.075476873219472
0.229132822069626 -0.797504890772529 -0.101882771086703
nan nan nan
nan nan nan
nan nan nan
nan nan nan
0.253958278192151 -0.899866927337333 0.250536835659240
0.251725715023753 -0.890766511375613 0.213703501626672
0.248568253570112 -0.878421585131258 0.177452365700187
0.252027127141059 -0.889459797874577 0.146422659277656
0.249090676286322 -0.878511802053464 0.112119795932736
0.249225768618606 -0.877820564387832 0.079834660356855
0.246167705094625 -0.866473864030561 0.047207032531135
0.242940653298527 -0.853981064851767 0.015497736916308
0.240213740632606 -0.850597047885077 -0.015427927290559
0.240217615206314 -0.849476926395324 -0.046264985318762
0.237213593340779 -0.837736960330826 -0.076174119161453
0.234866971683111 -0.828897791799018 -0.105782590075668
nan nan nan
nan nan nan
nan nan nan
nan nan nan
0.252888465502601 -0.908192122589390 0.252607388020060
0.251755223843610 -0.902902589407682 0.216402914278798
0.249196181743121 -0.892520430419530 0.180123691635458
0.248233851192285 -0.888475033012653 0.146109790347576
0.243883253490547 -0.871729191288623 0.111144841185495
0.245085149787056 -0.874848123513190 0.079486037385864
0.242214115955235 -0.863439366306808 0.046997688706164
0.242120008801199 -0.862524999307376 0.015637356167806
0.239926885299890 -0.861061933441498 -0.015602451354931
0.236177390290844 -0.846462709280215 -0.046055641493791
0.233751772529582 -0.836640985173746 -0.075999807675958
0.230903151471500 -0.825889020317859 -0.105295112702047
0.234852823379334 -0.838886759963436 -0.137975198165484
nan nan nan
nan nan nan
nan nan nan
0.251923560455658 -0.916476768047449 0.254677940380880
0.246691018933853 -0.896217028569634 0.214603305844047
0.249365214468110 -0.904697928298142 0.182413399579977
0.245441404163109 -0.889250496928188 0.146109790347576
0.242048133113996 -0.876360043993989 0.111632318559115
0.245369315793704 -0.887177835011000 0.080531906298836
0.238283371221549 -0.860388218063551 0.046788344881192
0.239258441572864 -0.863323155734981 0.015637356167806
0.234948748436877 -0.854140495721451 -0.015462832103433
0.233369120210233 -0.847241247590612 -0.046055641493791
0.233095132455369 -0.845094208471423 -0.076697053617939
0.213374783845960 -0.773071003296862 -0.098470429471359
0.234700858882925 -0.849180912898041 -0.139539542815886
nan nan nan
nan nan nan
nan nan nan
0.247711855924023 -0.913621494565426 0.253642664200470
0.245603576150329 -0.904595302924912 0.216402914278798
0.247750934268381 -0.911246312542332 0.183558253552236
0.242335845344491 -0.890101829694647 0.146109790347576
0.243162046784922 -0.892521874507145 0.113582228053597
0.238600219743096 -0.874573945000222 0.079311725900369
0.237384005546251 -0.868921360072603 0.047207032531135
0.237298081874865 -0.868010890070651 0.015707165793555
0.230394935756534 -0.849165650388390 -0.015358117664809
0.233028573160591 -0.857687635885783 -0.046579001056220
0.229620729012836 -0.843980207554742 -0.076522742132444
0.221104416091240 -0.812118591191544 -0.103345203207565
nan nan nan
nan nan nan
nan nan nan
nan nan nan
0.246178861676875 -0.920036512749514 0.255195578471085
0.242444452974936 -0.905447108291438 0.216402914278798
0.244060123064695 -0.910209303684610 0.183176635561483
0.240251861935963 -0.894757915638582 0.146735528207737
0.245196264644501 -0.912536158602937 0.116019614921700
0.237098983439942 -0.881173364927386 0.079834660356855
0.234349457746399 -0.869744691121235 0.047207032531135
0.234266712731890 -0.868833926736593 0.015707165793555
0.231047585686606 -0.863486871156770 -0.015602451354931
0.231067122281140 -0.862354240311945 -0.046788344881192
0.229254989713466 -0.854398192932960 -0.077394299559920
0.223416082131617 -0.832057268390729 -0.105782590075668
0.228766786395549 -0.850798726746219 -0.139539542815886
nan nan nan
nan nan nan
nan nan nan
0.245267632177430 -0.930272711137110 0.257783768922111
0.240774781359980 -0.911940404237453 0.217752620604861
0.239375903943019 -0.905361589147074 0.182031781589224
0.240160719341314 -0.907048555405746 0.148612741788219
0.237942039894142 -0.898035460299181 0.114069705427218
0.236065527277481 -0.889698644991145 0.080531906298836
0.233876489666066 -0.880208837294919 0.047730392093565
0.231232489122950 -0.869646376935326 0.015707165793555
0.226501629978047 -0.858487525691411 -0.015497736916308
0.227035153778179 -0.859293567769202 -0.046579001056220
0.225761566962306 -0.853267126007155 -0.077219988074425
0.226099269838032 -0.853940713732702 -0.108463715630581
0.222757942582470 -0.840135692686550 -0.137662329235403
nan nan nan
nan nan nan
nan nan nan
0.241532898480324 -0.929253462128861 0.257266130831906
0.239392972935381 -0.920360702786086 0.219552229039612
0.234571351189034 -0.900533286791025 0.180886927616964
0.239826202117247 -0.919391193187722 0.150489955368702
0.237657297400947 -0.910425908125230 0.115532137548080
0.235826449138389 -0.902123579382709 0.081577775211808
0.228473128493671 -0.873371417083794 0.047311704443621
0.229057049435723 -0.874356880884699 0.015776975419304
0.227377983624742 -0.874795027197438 -0.015776975419304
0.222374829039871 -0.854321360228657 -0.046264985318762
0.227658238386808 -0.873368510349658 -0.078963102929378
0.225974210786459 -0.866288576687910 -0.109926147751443
0.219177928761994 -0.839035256289888 -0.137349460305323
nan nan nan
nan nan nan
nan nan nan
0.238604517488323 -0.932003976769668 0.257783768922111
0.236662829147512 -0.923078418981888 0.220002131148300
0.236797130884867 -0.922263933581727 0.185084725515248
0.234488493541492 -0.912611101504295 0.149238479648380
0.236456586229467 -0.918939813194312 0.116507092295321
0.237150552174147 -0.920305526482226 0.083146578581266
0.224425654032870 -0.870295635652661 0.047102360618649
0.226003578858121 -0.875151112317147 0.015776975419304
0.221841544813407 -0.865897737903569 -0.015602451354931
0.221873138636777 -0.864765379241528 -0.046788344881192
0.224608226388249 -0.874157865041830 -0.078963102929378
0.223443266137182 -0.868994650697075 -0.110169886438253
0.220681140330103 -0.857011976809899 -0.140165280676047
nan nan nan
nan nan nan
nan nan nan
0.237095099125472 -0.938367944210201 0.259336683192726
0.232167357711041 -0.918190304421055 0.218652424822237
0.233737491478601 -0.923044110245137 0.185084725515248
0.228706826020298 -0.901854669553021 0.147361266067897
0.236826080250825 -0.933187565358418 0.118213263102993
0.233606634895248 -0.919155886140053 0.082972267095771
0.222030723325905 -0.872970706254786 0.047207032531135
0.227048907190607 -0.891398335054555 0.016056213922301
0.217499314714432 -0.860812330446785 -0.015497736916308
0.222433850173864 -0.879050016932077 -0.047521048268593
0.219261069324016 -0.865241176782528 -0.078091545501902
0.223000174315242 -0.879351753582946 -0.111388579872305
0.214434254496022 -0.844336896736090 -0.137975198165484
nan nan nan
nan nan nan
nan nan nan
0.233654216157375 -0.939230638353796 0.259336683192726
0.231316425395876 -0.928449808171542 0.220901935365675
0.234791622405355 -0.940998072428622 0.188519287432026
0.228749718511576 -0.916102592736883 0.149551348578461
0.234048786795447 -0.935934348192516 0.118457001789803
0.231364812497697 -0.923831127867203 0.083320890066761
0.222866517962865 -0.889239141090446 0.048044407831022
0.220528241894010 -0.878608717786627 0.015811880232179
0.215942472191516 -0.867387694295655 -0.015602451354931
0.218880857144975 -0.877883168553047 -0.047416376356107
0.220583574832014 -0.883398616329017 -0.079660348871360
0.223779271235484 -0.895531811044907 -0.113338489366787
nan nan nan
nan nan nan
nan nan nan
nan nan nan
0.231623355517547 -0.943712384125050 0.260371959373136
0.231490181072232 -0.942459194545792 0.224051250126490
0.226980195913600 -0.922707295264223 0.184703107524495
0.230595899036698 -0.935996975091610 0.152680037879265
0.229993443641282 -0.932850581385381 0.117969524416183
0.229732851182299 -0.930396168401916 0.083843824523247
0.224228556943770 -0.907423760694636 0.048986455043395
0.217133074942873 -0.877394047627673 0.015776975419304
0.215924855479134 -0.879751351934078 -0.015811880232179
0.213584730021287 -0.868906558887503 -0.046893016793678
0.215271583780409 -0.874452097921600 -0.078788791443883
0.223657490322790 -0.907833726762835 -0.114800921487649
nan nan nan
nan nan nan
nan nan nan
nan nan nan
0.229523733600386 -0.950188516180260 0.261924873643751
