# This PCD file was generated using the MATLABÂ® pcwrite function
# from Computer Vision ToolboxÂ®.
# .PCD v.7 - Point Cloud Data file format
VERSION .7
FIELDS x y z
SIZE 8 8 8
TYPE F F F
COUNT 1 1 1
WIDTH 983
HEIGHT 1
VIEWPOINT 0 0 0 1 0 0 0
POINTS 983
DATA ascii
-3.236536922196283 2.211128338641354 -1.050287685026029
nan nan nan
-25.468649712212638 17.602467054401878 7.147594800721967
-27.825990677147857 19.217376280726530 6.573369890721969
-21.685034954375933 14.965090172362977 4.173045789413199
-22.457718948765628 15.492542573379797 3.349944511520694
-22.745827908463511 15.679580127566252 2.417003057878056
-29.943728723374697 20.625956488864407 1.905552166805585
-23.133934740883291 15.929254840965406 0.490273001636168
-22.470049834760250 15.535802944849989 -0.476834648679460
-16.696803169785394 11.535565178757841 -1.063571302769104
-10.109854690233005 6.979531300319342 -1.074804619564121
-6.951839881187937 4.797544062284893 -1.037108112377805
-5.441265660349516 3.752276285973751 -1.046859440049225
-4.529740009006675 3.121359099210560 -1.069293610090157
-3.809916323872822 2.624361483113204 -1.068067606024671
-3.239938202569148 2.230079758202616 -1.053911151657464
nan nan nan
nan nan nan
-27.620147732264279 19.217958247934998 6.540550743517202
-21.951133206578664 15.267801483605652 4.234993837569130
-21.314625003765542 14.814050290066261 3.187127068731417
-22.321120635009304 15.502030533030247 2.377608662156115
-29.930274171287785 20.778849351163483 1.909529699480049
-23.502095572403157 16.303983830390237 0.499278443357807
-21.541108606826686 15.004939216958210 -0.458230383417316
-16.561358221410700 11.527599182408279 -1.057500331844923
-10.082158682807046 7.012503447848247 -1.074455996593130
-6.926901678137852 4.816115265764658 -1.035889418943754
-5.437868276201455 3.778009534399746 -1.048736653629708
-4.526880391818492 3.142749884415281 -1.071201700043922
-3.813540241185791 2.646533024461348 -1.071666822894173
-3.244833969952939 2.250182643744845 -1.058052256379105
nan nan nan
-25.026073968572707 17.556012559720955 7.057614378984421
-28.311690073560648 19.846158931020703 6.720674435152661
-29.035166041927756 20.345750199822469 5.615371557084128
-23.018964273968965 16.118052306413066 3.450364850486535
-22.413794641288270 15.682650946309668 2.393296695850693
-29.869388748025578 20.883709659228785 1.910053059042478
-28.521193798810174 19.933685044859551 0.607378648830341
-22.074593573853011 15.491272358771749 -0.470726306426411
-16.758131002859294 11.751613664344974 -1.072677759155377
-10.082094116351918 7.064804385350666 -1.077070668875560
-6.945817758254127 4.865320814574536 -1.041251670053580
-5.439212416675570 3.807162943808143 -1.051552474000432
-4.520708947841888 3.161908201860375 -1.072346554016182
-3.813861450003635 2.666528460769591 -1.074366235546299
-3.246461436434621 2.268133960010092 -1.061158084920335
nan nan nan
-25.820824708548557 18.248354726919295 7.299661713458420
-28.469962780447922 20.105682542235147 6.774864189839600
-22.589572167037108 15.947002256742490 4.379539283266304
-27.773734003878552 19.592214126476147 4.173293795565870
-28.823947775147705 20.317993910274385 3.085313293267099
-30.034705620647671 21.155767223369196 1.925335158265418
-28.498854831101280 20.066507764001255 0.608390888403703
-22.028548620579709 15.574004689822036 -0.470900830490784
-16.772470480774768 11.849221271601031 -1.076236604179897
-10.041095224987492 7.088463961557362 -1.075327554020606
-6.928792302968507 4.889536601962909 -1.041251670053580
-5.440419109609189 3.836371646702655 -1.054368294371156
-4.508039431178243 3.176538314403613 -1.071964936025429
-3.806123480199218 2.680947281039412 -1.074816137654987
-3.233785088873598 2.276116622959191 -1.059605170649720
nan nan nan
-25.782368538282725 18.356459117854591 7.306860147197423
-25.228987120170338 17.949196716092288 6.018497332166977
-29.256641924437822 20.799299264019496 5.685454197422151
-27.886402845129762 19.817834966735003 4.200592528488624
-28.850316420802042 20.487699681823905 3.095771982396818
-29.549807382714750 20.976677326648311 1.899167180143946
-28.304678688250188 20.077935891961449 0.605738122625236
-22.029429967281970 15.690246926676746 -0.472087594128519
-16.786332047171800 11.947071699373469 -1.079795449204417
-10.022785290448764 7.128089621450431 -1.076024799962588
-6.931097260800813 4.927495319789406 -1.044176534295304
-5.438267217528125 3.863347003182600 -1.056558376881719
-4.503327372543138 3.196800708939912 -1.073491407988441
-3.799920559487707 2.696472316561825 -1.075715941872363
-3.216364995723222 2.280686158683541 -1.056499342108490
nan nan nan
-24.731595324511307 17.738748174848368 7.026571133484968
-25.198093527694787 18.060026785831703 6.026129691982038
-29.115981018921808 20.860371602955539 5.672939440218933
-21.878855247834267 15.663721903433396 3.303877899713548
-28.908258683925634 20.681021267273113 3.109716901236443
-29.881405425798501 21.361447221100928 1.925021142527960
-27.915535234192145 19.948736081173642 0.598896779301821
-22.029767527864884 15.806684600209843 -0.473274357766254
-16.773743610589047 12.026542256655368 -1.081679543629163
-10.017277852689364 7.176956816991867 -1.078116537788532
-6.946132432739516 4.974776334666874 -1.049051308031510
-5.429567630926736 3.885755456885745 -1.057496983671961
-4.501722550605201 3.219352895843298 -1.075781115932960
-3.795240905147265 2.713119986540934 -1.077065648198426
-3.217816121198682 2.298637051055745 -1.059605170649720
nan nan nan
-24.731043893309611 17.856283635090385 7.042317707289038
-25.201732742718043 18.182750225546535 6.040631175630655
-24.868599348294186 17.929202253844487 4.855725794848766
-21.987361621822227 15.846120968067387 3.327764291020957
nan nan nan
-29.535315244865945 21.254559072360102 1.907017573580387
-27.696889163636147 19.924232274235376 0.595545917265863
-22.038359020830899 15.917966329417132 -0.474530931029739
-16.724541924334922 12.070996949288613 -1.080946840241762
-9.978521832196448 7.196736920214679 -1.076373422933578
-6.940130895020736 5.003539151613563 -1.050513740152371
-5.434963771348605 3.915495142945935 -1.060938541902846
-4.489993130578762 3.232332533509073 -1.075399497942207
-3.783535181647538 2.722753129735396 -1.076165843981050
-3.219989460335686 2.315501934252198 -1.062710999190950
-24.668795480123123 17.955841129896022 8.175575996698425
-26.703132575858024 19.422331757670598 7.623141329604897
-25.281038986843026 18.374492338249340 6.074976794798434
nan nan nan
-21.567265985661521 15.658036501679369 3.272435609115020
-22.832522615689918 16.564456727129279 2.467902011642689
-29.310557862922479 21.248506268839630 1.897283085719200
-27.492776419395678 19.923397705509078 0.592648817797273
-22.019850915299457 16.021857554664585 -0.475333741725854
-16.701689269819926 12.143397235152348 -1.082202903191593
-9.975906016044110 7.247919976040572 -1.078813783730513
-6.933866241562586 5.035899939742446 -1.052219910960043
-5.438848962416737 3.947205716257731 -1.064380100133731
-4.478682829871526 3.247985841908742 -1.075399497942207
-3.786630049154683 2.745093857084893 -1.079765060850552
-3.221274141574654 2.333527671690522 -1.065816827732180
nan nan nan
-24.530320338939166 17.966633260227638 7.019822601854651
nan nan nan
-27.494829101650151 20.108438154404940 5.395111830307482
-27.290649179719384 19.951800594204979 4.150869836379323
-22.314131391310980 16.301590888383217 2.417700303820038
-29.315752108447150 21.400935010766190 1.902202665606036
-27.486323811252792 20.058072247050447 0.593940295873633
-21.989182235325725 16.111336184706342 -0.475822409106098
-16.714508077579470 12.237651099667879 -1.085657076303627
-9.951816196352464 7.280961420997217 -1.078813783730513
-6.947572168047993 5.081130882754731 -1.056850946009439
-5.432109110661312 3.969882108377173 -1.065631575854053
-4.471058458809757 3.265135529808763 -1.076162733923713
-3.782228052417949 2.761082725978230 -1.081114767176615
-3.216639609114509 2.346473995903840 -1.066852103912590
-24.378156864074619 17.999410918559949 8.119671082956280
-24.329460630893198 17.950337533788794 6.980231216290131
-26.925219702520653 19.850984005489341 6.502388944441894
-22.274827618838017 16.410420604125157 4.382042234706947
-28.533128687239635 21.013385031060974 4.350979298250575
-21.204413649433391 15.604697865998013 2.303351969335110
-29.242479331016085 21.504318946870193 1.902307337518522
-27.715823395138514 20.374195204549206 0.600432591068302
-23.414625326532942 17.281681734123413 -0.507969741763574
-16.755272349748594 12.357566639163805 -1.091100015752893
-9.913509322622124 7.306199051479578 -1.077419291846550
-6.968150174304289 5.133609882409791 -1.062700674492886
-5.418218541793812 3.988819521851615 -1.065631575854053
-4.453308047974509 3.276069036867904 -1.074636261960700
-3.772567032465354 2.774268344221265 -1.081114767176615
-3.211542757970873 2.359975774698323 -1.067887380093001
-26.451576272361411 19.666171594911710 8.831941095078419
-24.294807421659492 18.056077641154225 6.988329454246510
-24.746894284538730 18.378665645106928 5.991784072814260
-22.284032528621527 16.537517317761647 4.395182729770326
-28.579175922740298 21.201560726821565 4.369259699761348
-29.431116851098178 21.817652853453414 3.205239595287877
-29.073603531012129 21.544761947836680 1.896445710419313
-27.065996046175457 20.042408203236707 0.587866858433458
-23.269105756365779 17.300073990032377 -0.506119786681222
-16.747305299113915 12.442182265984279 -1.093402797827582
-9.921539911003043 7.365699436507284 -1.081079833041952
-6.961346638190609 5.166183025274037 -1.064406845300558
-5.413782086268593 4.014768300522125 -1.067508789434535
-4.457618900251147 3.303282923207185 -1.078452441868231
-3.759728243022313 2.785100208685376 -1.080214962959240
-3.215707192363896 2.380366816422448 -1.072028484814641
-26.496821012253374 19.851020507689434 8.871281589934002
-24.187951662524622 18.108071534875748 6.975732195203254
-24.981277481283900 18.688383239718398 6.064291491057347
-23.564765606465560 17.622283247015293 4.660495582478558
nan nan nan
nan nan nan
-28.959808671163287 21.617442987250932 1.893933584519651
-26.716967264293025 19.928724811537329 0.581793420993283
-23.189368368317059 17.366808493473371 -0.505700928926727
-16.737352189947938 12.525695841750949 -1.095600907989786
-9.905341838252699 7.407446458296490 -1.082125701954924
-6.930551357877745 5.180942687906949 -1.062456935806076
-5.420308380273655 4.049009972285185 -1.071576085525582
-4.450780943821291 3.322345958645963 -1.079597295840490
-3.762478262423316 2.807530613972746 -1.083814179828742
-3.219768250998262 2.400815574845538 -1.076169589536281
-23.693304184233522 17.886623888228151 7.954544532180873
-24.171130996688071 18.240724374956578 6.991028866898636
-27.210443069276224 20.519435248945960 6.624506701482884
nan nan nan
-28.161374258280141 21.213412553819005 4.329042816437648
nan nan nan
-29.179815314689300 21.956645700829181 1.913821247891970
nan nan nan
-23.119321874955308 17.453311353820734 -0.505631119300978
-16.744939540920800 12.631968710181223 -1.099264424926792
-9.913418959388446 7.473010075480518 -1.086134866121316
-6.921704481201411 5.215878445423979 -1.064163106613748
-5.425235650139843 4.085239950851855 -1.075643381616628
-4.444266269007461 3.344132881458638 -1.081123767803503
-3.756342477012799 2.825471028974594 -1.085163886154805
-3.210526068346912 2.413160868865198 -1.076169589536281
-26.055384536161291 19.820152810652878 8.771895076614634
-24.417593106353753 18.560844225055984 7.081009288636183
-27.066735783401807 20.559666137411245 6.606952273908240
-23.098282597293494 17.538905676688721 4.593541631441339
nan nan nan
nan nan nan
-28.975657005851478 21.961854086653421 1.905447494893099
nan nan nan
-22.596646752964251 17.182889472571802 -0.495508723567353
-16.641904693203465 12.645632665212485 -1.095391564164814
-9.911074702698164 7.525641944722202 -1.088749538403746
-6.909780239970302 5.244808666248570 -1.065138061360989
-5.431402673633970 4.119671570560669 -1.079710677707673
-4.434130609969548 3.360811782029619 -1.081505385794256
-3.749563372450342 2.840919600487486 -1.086063690372180
-3.192841784526783 2.417356304688860 -1.073063760995051
-23.655461438763705 18.105599955814327 7.981979350961740
-24.379282121660459 18.652856689870511 7.086858016049123
-24.509710743992351 18.739088833075563 5.997126724684803
-27.460101383449825 20.979648352168919 5.473329062827598
-25.322337435847714 19.339388133219433 3.912249661992045
nan nan nan
-25.486136499693938 19.443366463197162 1.679984195398497
nan nan nan
-22.569548861088176 17.274455791948554 -0.496102105386221
-16.668725689868886 12.748813541070916 -1.099787784489222
-9.969699042357488 7.619653667105578 -1.097813735649502
-6.904310966170979 5.274926489222350 -1.066844232168661
-5.413723246056788 4.133118366816134 -1.078772070917432
-4.428233101685326 3.378297804438188 -1.082650239766515
-3.748367634429726 2.858593789588250 -1.088313200915619
-3.188304757007387 2.429716863089775 -1.074099037175461
-25.973842396658601 20.031454168351026 8.788977133591398
-25.087342267553982 19.333808798828752 7.312258972501676
-25.778739711147736 19.852302119737534 6.324554960750954
-22.962669645344622 17.677252506489605 4.589787204280373
-25.212194245938235 19.394981752366402 3.905668717448167
nan nan nan
-23.093264656307579 17.745713650933133 1.526325827869214
nan nan nan
-22.368163055328004 17.244469864025334 -0.492995577040385
-16.660512958402901 12.834955146753298 -1.102195238476397
-9.968300934770076 7.673853929276542 -1.100602719417427
-6.923612551462129 5.328050384898453 -1.072693960652108
-5.400828899865271 4.153194780765091 -1.079084939847513
-4.416413663361774 3.393734640835218 -1.082650239766515
-3.733730189260114 2.868099237341221 -1.086963494589556
-3.199725702010516 2.456123276199075 -1.080828332348127
-25.203859683232203 19.571263035193383 8.550345974006875
-23.934432055974057 18.578833712842769 6.995077985876827
-24.530315980040164 19.027663505290050 6.034525287778607
nan nan nan
-22.106431304032391 17.128974078431671 3.433790619783435
-21.790400577837886 16.871930800173736 2.411076467371216
nan nan nan
nan nan nan
-24.067314451577197 18.688714649363678 -0.531879538582652
-16.644011853111802 12.915072367591840 -1.104079332901143
-9.898941696871027 7.675639423604456 -1.095896309309054
-6.906540959067026 5.353401972023661 -1.072937699338918
-5.394107134173985 4.178070050749207 -1.080649284497915
-4.415408154020130 3.417541796735656 -1.085321565701787
-3.714448318262155 2.873959827760269 -1.084264081937429
-3.181962816335625 2.460187562005314 -1.077722503806896
-23.671328524558731 18.520696379233708 8.053413407410035
-23.456462708606772 18.339386533472954 6.874054318639827
-23.111612298939214 18.056770494557089 5.700991163860405
-23.557956160646317 18.398872027720149 4.734332649977547
-21.346988886380512 16.660103009011713 3.324839426779234
-21.501994053393453 16.769001746975981 2.385626990488899
nan nan nan
nan nan nan
-24.036585042981720 18.799714523667944 -0.532647444465893
-16.674363491914217 13.032127814671055 -1.109103584700466
-9.897212220862160 7.729768229513292 -1.098685293076979
-6.908153129629072 5.393358467950774 -1.076106302267452
-5.368587818182117 4.188368010110310 -1.078459201987352
-4.389516832661358 3.422069912614833 -1.081887003785009
-3.684411489969484 2.871335629233663 -1.078415354524489
-3.202315312293656 2.493832201145644 -1.087557627520792
-23.591778937796935 18.578237688769921 8.046166474147165
-24.715430217473799 19.456111589755785 7.261869936328651
-23.030004130746114 18.116318548912879 5.695648511989862
-23.444130140277938 18.428842657804076 4.723069368494651
nan nan nan
-21.259792155364622 16.693786794434970 2.364883923714957
-25.405734505487580 19.942130175024655 1.692649496809289
nan nan nan
-25.113116700262381 19.776272590271244 -0.557953433799954
-16.588677602622884 13.054002053592882 -1.106277443063347
-9.841767871736504 7.739146356577010 -1.095373374852568
-6.896472689166567 5.421144197802463 -1.077081257014693
-5.391951462906669 4.235433484583894 -1.085968056309283
-4.382777662196465 3.440243880720454 -1.083031857757268
-3.713197340540536 2.913612235487814 -1.089662907241682
-3.186426650669415 2.498477640590007 -1.084969437069767
-23.469269756349018 18.614856417017595 8.026496226719374
nan nan nan
-25.136337478820316 19.915673474605814 6.233729878951719
nan nan nan
nan nan nan
-25.434792573835594 20.116036633696080 2.837093737921768
-21.967448960773922 17.367529647518115 1.467604884964631
-25.309540351245833 19.995444024406858 0.563014631666766
-25.051765201264693 19.870026509377222 -0.558127957864327
-16.510139551806876 13.085775361304455 -1.104079332901143
-9.819378813432211 7.777164457407430 -1.095896309309054
-6.897739889117191 5.461203224764138 -1.080249859943227
-5.377134191406128 4.254229103878517 -1.085968056309283
-4.383062895194257 3.465262394151979 -1.086084801683293
-3.707591024344005 2.930180928413781 -1.091012613567745
-3.173137708770847 2.505993160266462 -1.083416522799152
-23.284909294238687 18.601410236826794 7.985602817593175
-23.739954522896429 18.958141515967714 7.013973874441711
-24.070751003032886 19.208550652911374 5.986059802952964
-24.528508193240292 19.566836367007674 4.969610085398054
-25.174463541339524 20.067751142075462 3.952954022689363
-21.829982119758682 17.389248625531348 2.441755288818392
-21.761386073520896 17.328399408613027 1.457870397103443
-25.175433845875144 20.032619364574462 0.561583534338909
-21.976258542243595 17.555979946032593 -0.490971097893660
-16.440947603329366 13.124636042532797 -1.102509254213855
-9.793729147196519 7.812635572301092 -1.096070620794549
-6.903467325237801 5.505049896508229 -1.084149678932192
-5.373065506612350 4.281590233379732 -1.088158138819846
-4.375547625251752 3.484209903983522 -1.087229655655552
-3.694290843486927 2.940677681524940 -1.090112809350370
-3.168906476942032 2.520662028321003 -1.084969437069767
-24.279056822045760 19.541802144460835 8.351055309277934
-25.588479811178534 20.581020108098812 7.581300433496938
-25.177258318419174 20.235801500326378 6.278760801860583
-24.447738407997605 19.642439702183335 4.967107133957410
-25.113548200776226 20.162960875556330 3.954416454810225
-20.836718594039198 16.717256297444546 2.337168397521201
-21.660256335143504 17.371765975139777 1.455148927378810
-25.147484508240222 20.154141297691687 0.562525964286522
-21.947560871280970 17.658909221140426 -0.491704098964026
-16.611392944869596 13.355902829965727 -1.117058650049393
-9.806780983172903 7.879219783842134 -1.100602719417427
-6.895043018834990 5.537815349214941 -1.085855849739864
-5.365790061160631 4.306501820337388 -1.089722483470248
-4.358764184268977 3.495777251125502 -1.086084801683293
-3.685523886538415 2.954774213731033 -1.090562711459057
-3.166119121491441 2.536539723699398 -1.087039989430587
-24.176597720364224 19.591800010128974 8.338114357022809
-23.631252139534833 19.143040660683106 7.021172308180715
-24.706669686607775 19.999927828911606 6.178776888283274
-21.879084268474752 17.704691311032356 4.457756515786420
nan nan nan
-20.799933189016691 16.807419379263521 2.339608758318136
nan nan nan
-21.851329934217368 17.638098286272303 0.490168287197545
-23.167519114641685 18.774080889081453 -0.520500569585543
-16.617444443339167 13.456541182721153 -1.120617495073913
-9.769924737486566 7.905883970585251 -1.099556850504455
-6.897277474006217 5.579328118498513 -1.089268191355208
-5.366087276997287 4.337623733084832 -1.092851172771053
-4.343480602314902 3.508503577928460 -1.085321565701787
-3.679735845465784 2.971293889786209 -1.091912417785121
-3.163259457684325 2.552428614306285 -1.089110541791407
nan nan nan
-24.021801469677008 19.598685597711537 7.157492647113097
nan nan nan
-21.740587918513629 17.718557628573770 4.442113069282396
-20.905575571619778 17.025882304884295 3.310458844257426
-21.479795336599590 17.481069881925762 2.422929648384897
-22.223244910990189 18.079670513836991 1.501413912697573
nan nan nan
-19.831458394626676 16.185673200362519 -0.446816509607332
-16.622995116544129 13.557383999566911 -1.124176340098433
-9.743812961339678 7.941197916295573 -1.099731161989951
-6.903922845777668 5.624685243338525 -1.093411749030983
-5.364700518401492 4.367552883251951 -1.095666993141777
-4.326638393422711 3.519926855817305 -1.084176711729528
-3.678412978076457 2.991497769242943 -1.094611830437247
-3.140837688664704 2.552489551232945 -1.084451798979562
-24.287466706636515 19.957050132413922 8.423007003816435
-24.028958938512847 19.737609393272660 7.179087948330108
-25.088950740461712 20.593634050258913 6.309290241120831
nan nan nan
nan nan nan
nan nan nan
-21.843360617031227 17.884950818796309 1.479537482988022
nan nan nan
-19.766860656514062 16.242460930464116 -0.446572175917210
-16.652037190142689 13.673270985443191 -1.129200591897756
-9.681999718385123 7.944397948030798 -1.095721997823559
-6.885232757243998 5.647548550092792 -1.093411749030983
-5.347132190060660 4.382814391603682 -1.095041255281616
-4.331649027220518 3.547939350069553 -1.088374509627811
-3.666964790800999 3.002444820079482 -1.094161928328559
-3.141327007036071 2.570230931587111 -1.087557627520792
-23.102556078117054 19.125683806951844 8.036331350433269
-24.749720251982236 20.474749235131746 7.415736457499854
-21.730350400526738 17.964136392230284 5.480415965205120
nan nan nan
nan nan nan
nan nan nan
nan nan nan
nan nan nan
-19.750098262268835 16.344509186508848 -0.447479701051949
-16.619598484886421 13.744042462721337 -1.130247311022615
-9.672639534463087 7.993376347837064 -1.097813735649502
-6.862416340885373 5.669019536107778 -1.092924271657363
-5.330277364603875 4.400195106641039 -1.094728386351536
-4.322266936484937 3.565536635747581 -1.089137745609318
-3.656461962136282 3.015226623994757 -1.094161928328559
-3.135317846101096 2.583637647568129 -1.088592903701202
-23.080167575707005 19.243323706582075 8.051860493139420
-22.620671311441537 18.853522447691105 6.798470764380289
-21.967582204927602 18.296204859084259 5.557121181346491
-24.842035292001153 20.682916763988242 5.119787171836676
-21.934730288240306 18.249399983108638 3.503499884211180
nan nan nan
-21.402962732907874 17.781706194824103 1.458289084753387
nan nan nan
-19.745351883929811 16.462887314681563 -0.448736274315434
-16.593663800173708 13.825319458631585 -1.131922061622389
-9.712179802802725 8.086141256024071 -1.105657752496791
-6.849221146193017 5.700482862221706 -1.094142965091414
-5.326264058691536 4.429807057700996 -1.097231337792179
-4.319738651016939 3.590138568106153 -1.091809071544589
-3.651381745083349 3.033589237455769 -1.095961536763310
-3.131772744624851 2.600047826797765 -1.090663456062023
nan nan nan
-25.896660317132074 21.737581420739041 7.805801585732116
-21.896061895874308 18.366466098878696 5.555213091392726
nan nan nan
-21.589405877336716 18.089993101104028 3.458408227151275
-23.207285780826123 19.431847487134988 2.648140087644846
-22.223068031366260 18.594553442712179 1.518580106345258
nan nan nan
-19.727581963509291 16.565144923200609 -0.449643799450172
-16.514703550727805 13.857481658417816 -1.129828623372671
-9.732749317268974 8.160958638648028 -1.111235720032642
-6.839930377617788 5.733282750806088 -1.095849135899086
-5.313797364627502 4.450909054240258 -1.097857075652340
-4.325246180357096 3.620316804359717 -1.096388487433626
-3.646748573401127 3.051318618317381 -1.097761145198061
-3.128606001232646 2.615920655502995 -1.092734008422843
-23.498426952800248 19.871774725010003 8.245974776966310
-22.348926176680362 18.886306909581521 6.755280161946266
-21.706038848087772 18.330041097894480 5.522393944187960
nan nan nan
-21.034651236073781 17.744216641652955 3.378949415251119
-21.067918347678521 17.759696161696695 2.410727844400225
-21.244701903314027 17.902378191897778 1.455986302678697
nan nan nan
-19.709192712884651 16.661456509292780 -0.450481514959162
-16.551048752235960 13.981769713156801 -1.135480906646909
-9.728469872960433 8.212466817859347 -1.113850392315072
-6.837568615978426 5.770015830693768 -1.098530261453999
-5.308069116673585 4.476146416919545 -1.099734289232823
-4.314718289298733 3.635905034491195 -1.096770105424379
-3.650023710520778 3.074694302592046 -1.101810264176251
-3.116958229935658 2.623792916915630 -1.091698732242433
nan nan nan
-21.727833448153643 18.491835703293468 6.587016773297055
-21.597056699274262 18.367540572361204 5.510945404465367
nan nan nan
-26.002797187914208 22.091016387227135 4.189380548895349
nan nan nan
-21.477638651775553 18.220807666128916 1.476083309875988
nan nan nan
-19.707250182455194 16.778116324810824 -0.451772993035521
-16.524960661268690 14.058871441202983 -1.137050985334197
-9.701261701640131 8.247665994426089 -1.114024703800567
-6.830999440232445 5.805417945531677 -1.100723909635292
-5.287895116585520 4.490811650942016 -1.098795682442582
-4.309484668450361 3.657295738027198 -1.098678195378145
-3.649670943907624 3.096241322977209 -1.104959578937065
-3.113674814420273 2.639654125468594 -1.093769284603253
nan nan nan
-22.024180403952723 18.877005656401927 6.696792887816861
-21.508953023555918 18.422382628932592 5.504839516613318
-25.392587377413378 21.733347620046686 5.293742296961413
nan nan nan
nan nan nan
nan nan nan
nan nan nan
-19.697142257463256 16.888456933216808 -0.452889947047507
-16.539486276064757 14.171047667711784 -1.141447205658605
-9.678466642418476 8.286662683273345 -1.114721949742548
-6.816725633639430 5.834390392140499 -1.101698864382533
-5.279693003925963 4.515662254317873 -1.100360027092984
-4.299676919394389 3.674867470785447 -1.099441431359651
-3.637359196999821 3.107696324577626 -1.104509676828377
-3.114726205759912 2.659287463342395 -1.097392751234688
nan nan nan
-21.887344219743035 18.892648734000552 6.675197586599850
-24.390999780982028 21.038893041762822 6.261206374285941
nan nan nan
-21.038671512123614 18.128079163485015 3.409904228476027
nan nan nan
nan nan nan
nan nan nan
-19.681962951633299 16.995010184625222 -0.453902186620870
-16.533771471016571 14.266533717547642 -1.144482691120696
-9.644955095949658 8.316493116178856 -1.114199015286062
-6.790303839778425 5.852965456778945 -1.100723909635292
-5.271381741554193 4.540510237161351 -1.101924371743386
-4.303190642215082 3.703942055215699 -1.103639229257935
-3.617626042444642 3.112747975468328 -1.101810264176251
-3.111283875902939 2.675181692445064 -1.099463303595508
-23.376731134243137 20.328246542264932 8.300844414528045
-21.500643463268325 18.690224217134286 6.577118926905925
-20.967783500848469 18.214170103914910 5.398749715183959
nan nan nan
-21.002252006172604 18.224825926538614 3.414291524838612
nan nan nan
nan nan nan
nan nan nan
-19.652698591480689 17.089853149024417 -0.454600282878361
-16.517037988459972 14.352981682083970 -1.146785473195385
-9.623388154955720 8.356641313166808 -1.115070572713539
-6.769831808768761 5.876632382218568 -1.100723909635292
-5.265945632134737 4.567943943538339 -1.104114454253949
-4.296169190474108 3.724084190732785 -1.105165701220947
-3.618520398703091 3.135566297079967 -1.105409481045753
-3.113610134227052 2.696142659797802 -1.103604408317149
-23.302067369080579 20.413790004127815 8.300844414528045
-21.615621535003658 18.923046195240239 6.632456886274516
-23.132347257865057 20.236580503817422 5.974229645239618
-22.412268025492263 19.592836242071126 4.714934776312559
-24.546842575888974 21.451327107461971 4.002676714798664
nan nan nan
nan nan nan
nan nan nan
-22.391053662947897 19.608789750299852 -0.519523234825056
-16.499902041145202 14.439486307144474 -1.149088255270075
-9.543166529410929 8.345588548368871 -1.109143982206698
-6.762728019256994 5.911986349630409 -1.102917557816585
-5.266332761040105 4.600593323605597 -1.107556012484834
-4.287580495074314 3.742931264894721 -1.106310555193207
-3.609021460120471 3.149459497291430 -1.105859383154441
-3.086707939126633 2.691758393331426 -1.097392751234688
nan nan nan
-22.212111999482453 19.575722024285035 6.835362737292682
-21.255853554930287 18.719784827341840 5.505602752594823
nan nan nan
-24.684230351478842 21.716178131933713 4.036800130952106
nan nan nan
nan nan nan
nan nan nan
-22.907902994739558 20.196033192214742 -0.533066302220388
-16.454925511146989 14.496763137035744 -1.149297599095046
-9.531888850024963 8.391670959779526 -1.111061408547146
-6.752027090743912 5.942248648759664 -1.104379989937446
-5.234730872869561 4.603682000370334 -1.104114454253949
-4.289891877313857 3.770088899876390 -1.110126735100738
-3.605877725263183 3.167840985617567 -1.108108893697879
-3.086475429881709 2.709626597272713 -1.100498579775918
nan nan nan
-21.487774181040539 19.071033120448082 6.632906788383203
-21.152191009606941 18.759997689323740 5.495680684835244
nan nan nan
-24.994591529238214 22.144473764413483 4.100172189522781
-22.161445571598740 19.620585974778319 2.589571428518419
nan nan nan
nan nan nan
-22.855210540844343 20.291805457321050 -0.533485159974882
-16.431114282751501 14.577972428827838 -1.151181693519792
-9.495084239828657 8.418283540783616 -1.110189851119670
-6.750556407842145 5.982897985005422 -1.107548592865980
-5.224544268456737 4.627165368536981 -1.105365929974271
-4.279646002707866 3.787642744987372 -1.110889971082244
-3.594797928402465 3.180408548231030 -1.108108893697879
-3.082787536469626 2.725502213142886 -1.102569132136738
nan nan nan
-21.604146616421566 19.309552532778469 6.689594454077858
-20.925510693129816 18.689859631037571 5.453702705852404
nan nan nan
-22.579770035326884 20.146136067776176 3.715552541736136
-22.076463486478605 19.683239232788626 2.587654002177971
nan nan nan
nan nan nan
nan nan nan
-16.488851809625739 14.732381336708723 -1.158822743131262
-9.493878998508851 8.476588427624652 -1.113501769344081
-6.722226106058694 5.999816191571695 -1.106329899431929
-5.208360617403003 4.645374241106687 -1.105365929974271
-4.279589103491808 3.814314871694613 -1.114324532999022
-3.586584337639617 3.195530080745055 -1.109008697915254
-3.079026347764160 2.741385036292280 -1.104639684497559
-23.787779004076388 21.426131290646467 8.578298430877947
-21.045596443467293 18.942890124723856 6.537077639232717
-21.534510945095988 19.369353610936070 5.630010217580331
nan nan nan
-24.544065844760102 22.053079778491593 4.051424452160723
-20.188601670338056 18.126920767131768 2.373773809475218
nan nan nan
nan nan nan
-22.466304694886500 20.228751607703330 -0.527690961037704
-16.391299452383091 14.748435237249451 -1.155577913844200
-9.484974242469809 8.528326493624681 -1.115942130141015
-6.729292908609692 6.048457551491262 -1.110960934481324
-5.236201645959614 4.703126226892041 -1.114751997876685
-4.261865455055383 3.825296046740364 -1.113179679026763
-3.582660354236944 3.214537288679663 -1.111258208458693
-3.066561670222348 2.749536839663378 -1.103604408317149
nan nan nan
-21.156411700546681 19.163287058560272 6.590166088057869
-20.911716436245545 18.928359944582386 5.482705673149638
nan nan nan
-22.086388261303423 19.970591638585887 3.656080302154424
nan nan nan
nan nan nan
nan nan nan
-22.426353072487245 20.320715154722006 -0.528249438043697
-16.333040945439009 14.789132623763138 -1.154740538544313
-9.484727646584895 8.582144371461768 -1.119079736879931
-6.751479360166660 6.106853998752530 -1.117785617712013
-5.236055029963761 4.732799012468921 -1.117880687177490
-4.251283838430545 3.839982156584054 -1.113561297017515
-3.579775794704609 3.232306578802459 -1.113507719002132
-3.056474335731300 2.757862979258796 -1.103086770226944
nan nan nan
-21.325508697098567 19.452398946039761 6.663950033882657
-20.093934793121758 18.316153315690244 5.285027553939538
-20.146756847331901 18.357865165373571 4.316965497250211
nan nan nan
nan nan nan
nan nan nan
nan nan nan
-21.785101566667077 19.878590775359857 -0.514776180274115
-16.378722279950384 14.934873429151429 -1.161648884768381
-9.467966857965566 8.627277347211145 -1.120648540249389
-6.737459010635294 6.137067657411462 -1.119004311146064
-5.222424214478026 4.753706837951103 -1.118506425037651
-4.243663157262973 3.860082677243960 -1.115087768980528
-3.575680162537462 3.251337752364843 -1.115757229545570
-3.052548035884155 2.773711913835040 -1.105157322587764
nan nan nan
-20.247810026063945 18.612294738291492 6.349468459909933
-19.595488797828864 18.000048913111954 5.172068628676624
-20.128814586042129 18.477001144162035 4.327603040872947
-24.496075981888755 22.477999177666952 4.082135526698820
-20.934559673773215 19.196437354754128 2.484984537221230
nan nan nan
nan nan nan
-22.150203836732906 20.368156542125305 -0.525247624136485
-16.321255884068105 14.997652957556015 -1.161648884768381
-9.415692845839070 8.646049550909272 -1.118382490937950
-6.719694324330101 6.168261880913852 -1.119979265893305
-5.215778449039473 4.784406875296367 -1.121009376478294
-4.237493645686237 3.884308326694649 -1.117377476925046
-3.567479879303132 3.268993026085373 -1.117106935871634
-3.056122929645018 2.798458809021950 -1.110333703489814
nan nan nan
-20.204168835015778 18.702716466936884 6.356216991540250
-20.227194280371094 18.710924201912050 5.356008500219613
-20.017447904764907 18.510418621802486 4.318216972970533
-24.525350934606028 22.663064345994410 4.100172189522781
nan nan nan
nan nan nan
nan nan nan
nan nan nan
-16.421260782437642 15.195610305057444 -1.172534763666913
-9.367901293342479 8.662631488913108 -1.116290753112006
-6.698122133588652 6.191680412254728 -1.119979265893305
-5.207752165288899 4.810626475917140 -1.122886590058777
-4.239777573891458 3.913724444417622 -1.121575274823330
-3.551750757171893 3.277461268061864 -1.115757229545570
-3.046335866496138 2.809109619682689 -1.110333703489814
nan nan nan
-20.093980007721562 18.718278855458607 6.340020515627492
-20.107958405685203 18.718194692289160 5.339980544607983
-21.617055765590731 20.108910656944261 4.676139028982581
-21.466691783358606 19.962049424307910 3.599289188127625
nan nan nan
nan nan nan
nan nan nan
-21.774705404676741 20.291035561252620 -0.519523234825056
-16.440677464141423 15.309735081664826 -1.177349671641264
-9.340640649960221 8.692018822047460 -1.116290753112006
-6.678637374008289 6.212692594235508 -1.119979265893305
-5.209975223514095 4.843102537494671 -1.126641017219743
-4.224584541159596 3.924352408765375 -1.120812038841824
-3.550004790948563 3.296559528321324 -1.118456642197697
-3.041744015647815 2.822608278262498 -1.111886617760429
nan nan nan
-20.008620839860836 18.769640251111642 6.333721886105864
-20.313206275174249 19.042039064505257 5.412106344860317
nan nan nan
-20.262340092152527 18.974433391034566 3.408441796355165
nan nan nan
nan nan nan
nan nan nan
-22.826552382424008 21.420569960605945 -0.546399940738472
-16.355084699871181 15.336974058377990 -1.175046889566575
-9.282620416137778 8.698685896329074 -1.112978834887595
-6.668500174288196 6.246824501371234 -1.121929175387788
-5.204574779368649 4.872059037408891 -1.129143968660386
-4.207992800491848 3.936392672259711 -1.120048802860318
-3.534205939225423 3.304938195030467 -1.117106935871634
-3.021992338066168 2.823975760611095 -1.108263151128994
nan nan nan
nan nan nan
-19.999633839687608 18.879680350447916 5.346086432460033
-20.719787289545870 19.552668374266890 4.512195709620419
-20.071780526413718 18.927921701144406 3.387480269289479
-22.121302599459646 20.846061018012584 2.659296022716546
nan nan nan
nan nan nan
-21.885410680804448 20.681537744341796 -0.525596672265230
-16.284023642440939 15.377515179890892 -1.173790826616744
-9.263792202464870 8.741974726463761 -1.114373326771557
-6.666869823664831 6.289134218985659 -1.125341517003132
-5.183224244950916 4.886131710054536 -1.128205361870145
-4.201371779408420 3.957788258845778 -1.121956892814084
-3.519810607622131 3.314582767968676 -1.116207131654258
-3.013523285685455 2.835831195274146 -1.108780789219199
nan nan nan
-19.913807581634995 18.943790143193254 6.345419340931745
-21.353678310327926 20.299329133176315 5.726941187231616
-20.662865011797170 19.635760884265775 4.514698661061063
-21.137001463854162 20.072292611236982 3.579058877122371
-21.996373281137274 20.873778840033175 2.653020809238715
-22.100155183770681 20.964934654413593 1.596456009234759
nan nan nan
-21.650841613713645 20.603411458888065 -0.521687333223279
-16.296823611150696 15.497574929950497 -1.178605734591095
-9.273660148630363 8.812687548241042 -1.119254048365426
-6.652072128617237 6.319203627668082 -1.126560210437183
-5.163271583860414 4.901474751828992 -1.127579624009984
-4.187530924026896 3.972429670992983 -1.121956892814084
-3.519531385141501 3.337576451680146 -1.119806348523760
-3.012019490358796 2.854305999528435 -1.111886617760429
nan nan nan
-19.921626024775765 19.090808041857930 6.370163956909569
-19.274156734175929 18.457438904679208 5.187333348306747
-19.768839588597007 18.924546892123821 4.334486157334717
-19.770862022018928 18.913261602687239 3.359450320306295
-21.683527855298841 20.728471033057914 2.624433725617483
nan nan nan
nan nan nan
-21.601164669805669 20.707536195819987 -0.522315619855021
-16.404330995970039 15.714707984981212 -1.190538332614486
-9.352118477657800 8.952705791250406 -1.132676032748566
-6.638905799742509 6.353149514618551 -1.128266381244855
-5.160976315757129 4.935383931723697 -1.131021182240869
-4.189975535482653 4.004027591966668 -1.126536308703121
-3.519956906368834 3.362568700483653 -1.123855467501950
-3.008524524354167 2.871996185272811 -1.114474808211454
nan nan nan
-21.011745295908224 20.276637057278712 6.741333196576947
-20.068835673819390 19.353191144207599 5.419357086684625
nan nan nan
-22.485370899606171 21.660843475623636 3.833522066152319
-21.461760651017133 20.660329578189142 2.606305331125970
-22.692158365234196 21.837151928451018 1.650466716077477
nan nan nan
-21.511485842724895 20.766145925711768 -0.521896762100526
-16.343626750740604 15.766327405681569 -1.190119644964543
-9.342326909789852 9.006037914959419 -1.135290705030995
-6.613829924587278 6.373529985229285 -1.127778903871235
-5.153677339974435 4.962960618912312 -1.133211264751432
-4.183046469720238 4.025435562929924 -1.128444398656886
-3.512411114447783 3.378888201745413 -1.125205173828013
-3.005444553101997 2.889174500657362 -1.117062998662479
-20.633938982545249 20.058623111009307 7.710736991694298
-20.852793176016398 20.264297534351812 6.712989363729620
-20.775796357333810 20.175377769418731 5.629246981598825
nan nan nan
-19.686785815534996 19.097820944226040 3.367737435657845
-21.280790454443050 20.629724031484013 2.593057658228326
-21.589628729697004 20.914500293460190 1.575312282912609
nan nan nan
-21.484750487047823 20.885712273275637 -0.523013716112512
-16.501947604501318 16.030639998595245 -1.205715759924940
-9.346572471670903 9.073288287390740 -1.139648492168378
-6.600089352635098 6.404872406404329 -1.129241335992097
-5.143412426495507 4.987795998963701 -1.134775609401835
-4.173199186595228 4.044111357189075 -1.129589252629145
-3.500595194753989 3.391128219229694 -1.125205173828013
-2.991177090212035 2.895616836981495 -1.115510084391865
nan nan nan
-20.717861852765466 20.274267016369635 6.692293866729984
-20.901755605597561 20.439945168537285 5.682673500304257
-21.097969898586832 20.624621803164086 4.673010339681777
-19.598702190962875 19.145616862992298 3.364081355355691
-21.624952781371995 21.110277275235642 2.643956611992958
-21.488528036084993 20.969776183346102 1.573532860400349
nan nan nan
-21.786105489610406 21.327083219032509 -0.532158777085649
-16.490148967075278 16.131441390570103 -1.208960589212003
-9.326241632509046 9.117000708599290 -1.141042984052341
-6.600407931912474 6.450070562035355 -1.133141154981061
-5.130210277108472 5.009859851511799 -1.135714216192076
-4.153436831466184 4.053169235289336 -1.128062780666133
-3.495711304781938 3.410130849147674 -1.127454684371451
-2.983817914844511 2.908737373644704 -1.116545360572274
nan nan nan
-20.667951317296957 20.352927390513841 6.696792887816861
-21.816970314851645 21.469437294132536 5.949806093831421
-19.537549356617077 19.219615362774007 4.340743535936326
-21.241454858997788 20.881208287118511 3.657298995588476
nan nan nan
-20.632334716763065 20.254114257322716 1.515230605145710
nan nan nan
-21.723270792389432 21.399630970091771 -0.532263491524273
-16.480665645727928 16.223800090875685 -1.211996074674093
-9.323119896366068 9.171405027237634 -1.144180590791256
-6.599927250225947 6.490260583451134 -1.136553496596405
-5.118672862456133 5.030105812720191 -1.136652822982317
-4.146286038587419 4.071699916074338 -1.129589252629145
-3.482199520230442 3.418365779624515 -1.126554880154076
-2.977423287708652 2.920802644165756 -1.117580636752685
nan nan nan
-20.773897516931022 20.600587465875176 6.754380357728890
nan nan nan
-19.680846697923545 19.496227717574996 4.387673875448396
nan nan nan
-20.849907151322292 20.625501405827702 2.565865066491057
-20.808656143694492 20.570327670478175 1.533443517918254
-21.550237866646086 21.295980305279514 0.528842819862565
-21.683931367540108 21.510536728172450 -0.533136111846137
-16.490599545702768 16.347316199087608 -1.216915654560930
-9.299541650892547 9.212305978380661 -1.145226459704228
-6.591336954689499 6.527227046543524 -1.138990883464508
-5.119336588949484 5.066005773682489 -1.140720119073364
-4.132047892919563 4.086148349113590 -1.129589252629145
-3.470245982132925 3.430500098453770 -1.126554880154076
-2.964460955465131 2.928462685660736 -1.116545360572274
-20.316342696886046 20.309252192899958 7.697278401348967
nan nan nan
-19.011726770643296 18.978573970639609 5.221678967474525
-19.646236445868599 19.598290187793246 4.395182729770326
-21.108357065723805 21.049493563547738 3.660223859830199
-21.314694468152691 21.240421703660061 2.632626365435763
-21.243157818987317 21.161746147709756 1.571439422150631
-21.557071615441270 21.459470011009380 0.530937108635039
nan nan nan
-16.484276792050224 16.461276453192703 -1.220893187235394
-9.285458690829765 9.266031608515846 -1.147666820501163
-6.574396129340292 6.558351443408944 -1.140209576898560
-5.113325315515456 5.097286510773012 -1.143535939444088
-4.108698297614044 4.092952239611073 -1.127299544684627
-3.457649261754306 3.443196143801706 -1.126554880154076
-2.967401282972138 2.952935143297109 -1.121721741474325
-20.302508898420783 20.437608739821162 7.719019201137579
nan nan nan
-21.310245373992544 21.422118697112122 5.873482495680802
-22.706602750557067 22.817840170613689 5.098512084591205
-21.181828599257301 21.270741183499080 3.685816421945280
-24.108012238902273 24.192312293787545 2.988047484360712
nan nan nan
-21.506041336071899 21.558654813992561 0.531530490453907
nan nan nan
-16.480232178554928 16.572533151586399 -1.224870719909857
-9.286786884475823 9.332281942675113 -1.151850296153050
-6.576671865293691 6.606583774839701 -1.144596873261145
-5.099683667034066 5.119302736624170 -1.144474546234329
-4.095772244627268 4.108659746862476 -1.127681162675380
-3.452489409141569 3.462144065071140 -1.128804390697514
-2.948887972371550 2.955070585575795 -1.118615912933095
-20.362175662143358 20.634077093638226 7.767677181616852
-20.232513686553219 20.488373936355597 6.647753557969899
-19.116698872691185 19.344937496463029 5.286554025902550
-20.779130129819666 21.012541281876960 4.680519194003708
-19.234875041357480 19.444150752440645 3.358231626872244
nan nan nan
nan nan nan
nan nan nan
nan nan nan
-16.463082859248999 16.665456104939029 -1.227696861546976
-9.261391638190769 9.368694417434096 -1.152547542095032
-6.589622753049881 6.663643726440150 -1.150690340431402
-5.078510999124939 5.131973459300697 -1.143535939444088
-4.091794926237542 4.131984212591867 -1.130352488610652
-3.449218294130934 3.481880569812497 -1.131503803349641
-2.922751767082270 2.948369529008001 -1.112404255850634
nan nan nan
-20.013513809883264 20.408605875068400 6.599164130231625
-20.413140542165578 20.801591744325510 5.665119072729616
-19.581792928457567 19.940495690569719 4.426469622778373
-21.860098165014563 22.252765035247517 3.830109724536975
nan nan nan
-21.406028246670594 21.760130236971769 1.599700838521821
nan nan nan
nan nan nan
-16.492924445758394 16.812644779444231 -1.234291192033587
-9.259338646493646 9.432245309924969 -1.156382394775929
-6.584403527918074 6.705017801644400 -1.153858943359936
-5.063335248312070 5.152487381778716 -1.144161677304249
-4.075970129199002 4.144842257243088 -1.129970870619898
-3.445242954538224 3.502234722147557 -1.134203216001767
-2.928705286139806 2.975074416929703 -1.118615912933095
-20.356007781437260 20.910624902092380 7.819440990637356
-19.889129375458516 20.423892916702538 6.581617947992802
nan nan nan
nan nan nan
-19.051531815303978 19.529648006561523 3.349944511520694
-20.586973988349534 21.088891188162869 2.578415493446719
-21.109425810820014 21.608985119104990 1.583162676349051
nan nan nan
nan nan nan
-16.421593868004795 16.857237636139441 -1.233349144821214
-9.255563691360562 9.494468976297258 -1.160042935971330
-6.572045915997418 6.739330409891254 -1.155808852854419
-5.053596662981652 5.178612905834960 -1.146038890884731
-4.077936984422986 4.175900094405714 -1.134550286508935
-3.427549844469872 3.508663582226680 -1.132403607567016
-2.912900732676353 2.979753644071620 -1.116545360572274
nan nan nan
-19.855646748195198 20.532418610923067 6.594215207036059
-18.926727375086010 19.558170925591352 5.290370205810081
nan nan nan
-22.836798999265774 23.573980006734036 4.029975447721417
nan nan nan
-20.793282043260518 21.434533876046284 1.565054435488992
nan nan nan
nan nan nan
-16.514015671957250 17.070926130517901 -1.244758383282176
-9.262553039646182 9.568232956521033 -1.165097969050694
-6.531909782303566 6.745117723557351 -1.152883988612695
-5.036863832183274 5.197640270239323 -1.146351759814812
-4.046934577990319 4.173196658799682 -1.129970870619898
-3.417995212671123 3.523404050487986 -1.133303411784392
-2.914592198914878 3.002378669085421 -1.121204103384120
nan nan nan
-19.963376173513161 20.788544952471934 6.654052187491527
-18.923637449536734 19.692065985673889 5.308687869366230
-22.334926616397915 23.225643870335759 5.103517987472492
-20.979051436300150 21.808076809812242 3.715552541736136
nan nan nan
-20.321125763709382 21.102026272808118 1.535327612343000
nan nan nan
nan nan nan
-16.524892391540003 17.201923898553744 -1.250096650818956
-9.249808861681096 9.622052130893735 -1.167712641333124
-6.552356085219937 6.813664157518017 -1.160683626590625
-5.036496482949527 5.233694218527266 -1.150419055905858
-4.025533658448183 4.180226922976381 -1.128062780666133
-3.396211448715091 3.525489400437529 -1.130154097023578
-2.906775712281373 3.015315859648163 -1.122239379564530
nan nan nan
-19.709130972878871 20.667715120275414 6.593315402818684
-20.771300779320978 21.766327233673664 5.848295708291099
nan nan nan
nan nan nan
nan nan nan
nan nan nan
nan nan nan
nan nan nan
-16.485424954486479 17.281179082118257 -1.251666729506245
-9.223044040755649 9.661487131528393 -1.168584198760601
-6.543612646989392 6.852286624158814 -1.163364752145538
-5.008643525728665 5.241246059557967 -1.148228973395295
-4.024486151304440 4.208442138911913 -1.131878960573664
-3.378496152147883 3.531690232452925 -1.128354488588827
-2.902912089834142 3.032421530135228 -1.124827570015555
nan nan nan
-19.848578129424606 20.959952188239498 6.664399935991345
-18.928845438142687 19.974750919871340 5.349139376386057
-21.027741715209995 22.174112862066412 4.840082348344743
-22.386488200775307 23.598683774224451 3.993902122073493
-20.652655110923771 21.755751618573790 2.624433725617483
-23.163274991213456 24.391941014393304 1.762884350087320
nan nan nan
nan nan nan
-16.405772140821391 17.318319234732027 -1.250201322731442
-9.192004393985794 9.696514594390321 -1.168932821731591
-6.538777062226034 6.895252116056494 -1.166777093760882
-4.994396927114618 5.262996219557694 -1.149167580185536
-4.020586725426172 4.233853558577052 -1.134931904499689
-3.375542818683448 3.553351913649970 -1.131503803349641
-2.894971320388025 3.045336419131117 -1.125862846195965
nan nan nan
-19.908792901923061 21.171072836433076 6.709390146860118
-18.859005224571462 20.040703227970386 5.349139376386057
nan nan nan
-20.582108919628826 21.848842312968312 3.685572683258470
-20.065452862778290 21.285496981232892 2.559241230042234
