# This PCD file was generated using the MATLABÂ® pcwrite function
# from Computer Vision ToolboxÂ®.
# .PCD v.7 - Point Cloud Data file format
VERSION .7
FIELDS x y z
SIZE 8 8 8
TYPE F F F
COUNT 1 1 1
WIDTH 946
HEIGHT 1
VIEWPOINT 0 0 0 1 0 0 0
POINTS 946
DATA ascii
14.570122774839287 10.297144719858904 0.935034194236434
15.007147754590790 10.613860312451099 0.320845039943020
12.398666125052738 8.733339947955596 -0.264718100840716
10.832950370606579 7.636144131861940 -0.694602811256350
9.693533725323016 6.838035834944822 -1.037850584639113
8.237672309638819 5.813192041519106 -1.237948790309488
6.543036687683500 4.620737284388278 -1.268683511476272
5.340509355966021 3.774298855676538 -1.271169527198541
4.589095344345176 3.244453079768606 -1.297517681455413
3.805412795647046 2.692388677977466 -1.249060711664765
24.614840917368127 17.209899920044407 8.047719388417780
23.787414882792113 16.637572355738932 6.701741811012426
28.142180766860584 19.698048093335291 6.677169984206809
19.726669724361642 13.812762844771278 3.814185126610909
29.506361929390724 20.675930292736791 4.423857165606853
17.927675246506411 12.571754771509852 1.915683225593527
18.660922878915212 13.090802690411131 1.194620537201436
15.305969939889195 10.745247497305485 0.326429810002951
12.368438001933532 8.647611450958323 -0.263426622764357
11.522305236330768 8.062012435205640 -0.736994935813135
9.617787607801835 6.734447383882776 -1.027217584023899
nan nan nan
6.551038506546101 4.592200289927773 -1.267119166825870
5.337579376109602 3.744359210444387 -1.267353347291011
4.598797497661114 3.227294958829519 -1.297067779346726
3.783169171351493 2.656883444166803 -1.238707949860664
27.168226712697013 18.847269498142708 8.859893551949490
24.591313381699592 17.072319257127667 6.911396193660909
28.939537111292282 20.106012425139337 6.849661316027206
19.773143003911773 13.742692390828932 3.813872257680829
18.835626602490276 13.100854752225612 2.817131742153389
17.991072695488985 12.522757621838416 1.917774963419470
18.549155592275053 12.916019971755127 1.184572033602791
15.399166797878774 10.730625019624160 0.327616573640686
12.304906302237097 8.539398782284017 -0.261437048430507
11.235411179035413 7.802999230933731 -0.716897928615845
9.623240082493142 6.688326091134590 -1.025300157683451
8.159075247237197 5.672817181274795 -1.220155866172337
6.521626688227874 4.537714664595222 -1.258358836783617
5.339339085903304 3.717851733273510 -1.264682021355739
4.582851147057497 3.192287089633455 -1.289419443499034
3.827285921571885 2.667965984736508 -1.250095987845175
24.349379702159183 16.772435086733982 7.922450970588160
24.498314562922417 16.881330258305308 6.868655493335574
25.389209696890500 17.508303290440281 5.994837016740284
18.204745126285538 12.558612455251554 3.502880541180850
18.472840342739740 12.753078192361462 2.756197070450815
18.001891310726268 12.437230555103120 1.914288733709564
18.300026211699198 12.647926455702981 1.165835761267817
15.536852494634481 10.746195526276590 0.329745767226035
10.605484344769215 7.305311260978103 -0.224786994912212
9.902651254546765 6.826281041334896 -0.630334256990015
9.590767791499335 6.616227527834920 -1.019373567176610
8.048122974085022 5.554101539557085 -1.200656771227513
6.537426536362177 4.514922293855812 -1.258358836783617
5.300602598376298 3.663471902150166 -1.252470245651640
4.576334277156900 3.164079655474901 -1.284470520303469
3.898532664257821 2.697459164989950 -1.270283873363172
24.458810352086960 16.722227925917270 7.939015389474721
24.539398561793099 16.783610885160670 6.863706570140010
25.508494045485122 17.459491826035542 6.008575264407396
26.652287728618091 18.249202278082169 5.116032744675710
18.924990533834031 12.967916998123421 2.816888003466579
18.127353730637427 12.430655540067827 1.923004307984330
18.177719235135815 12.469858248364522 1.155263898106742
23.314418658495150 16.005588839453129 0.493623863672127
9.973915963802252 6.819060030301719 -0.210894879388134
10.689609400567997 7.313848851156735 -0.678797352470981
9.556266146781761 6.543311993009596 -1.013272665184274
8.159174293155335 5.588795170507168 -1.214306137688890
6.538482799486102 4.482023027022643 -1.255543016412893
5.284217304418916 3.624956458359911 -1.245601121818084
4.579317205854849 3.142572705649259 -1.282221009760031
3.887222674582755 2.669616771400626 -1.263554578190506
25.301923146920977 17.169359136297697 8.193175691765397
24.407578861999276 16.568697924124994 6.810618121314857
19.424210962491316 13.195724796971312 4.564532787397705
24.856886000514933 16.899065066655545 4.760613640104306
18.842109261623527 12.814701334884479 2.797876385895376
nan nan nan
18.552415795565452 12.636629979928946 1.176407624428891
13.970528845791593 9.519333613320132 0.295085288041590
10.078738142612725 6.839222212730417 -0.212605215218988
10.939785261577791 7.429089315801316 -0.693032732569062
9.551034616385243 6.490876422613572 -1.010309369930853
8.139233844071640 5.533494514189839 -1.208456409205442
6.542655646200797 4.451393884876429 -1.253352933902330
5.222189497558460 3.555662268600305 -1.228046694243442
4.587037698610851 3.124374676595236 -1.281321205542655
3.869380946292538 2.637534010844616 -1.254754730657021
11.629485570303382 7.829429862410315 3.756499620617986
24.402235894995762 16.440932484367124 6.793071939076036
24.394259035585705 16.447941563552401 5.718927209425801
24.935033826273525 16.818892683575491 4.763742329405111
19.910120466183365 13.439660108944228 2.949481849091379
20.237804243671995 13.671137661591075 2.136710189201588
16.720377486379313 11.299279285379539 1.057605003757409
15.464665909645005 10.458561094978339 0.325871332996958
12.728118423141295 8.572301714040217 -0.267859533999427
11.002087210229394 7.415415129349256 -0.695335514643752
9.497652594429109 6.406247564953002 -1.002291041598069
8.143690056478432 5.495056543419792 -1.206262761024150
6.564702382020739 4.432950531062424 -1.254604409622651
5.185769670601809 3.504434027611715 -1.216598154520850
4.578542614729005 3.095246937599204 -1.275922380238402
3.787360226104040 2.562308046416829 -1.225249359515333
11.398410776884097 7.619052512945060 3.673677526185180
24.533994040792791 16.405481088143027 6.813767436075671
24.529842422918023 16.415099024198842 5.737244872981949
25.003439849121083 16.738344066331592 4.765619542985593
19.928876015381139 13.351296083627512 2.945338291415604
28.976781790867221 19.427573913206526 3.052194111022989
30.525186710781934 20.481155383602200 1.926486549302762
15.599039858795454 10.470268235751513 0.327930716956557
12.761288780247064 8.530042586878745 -0.267929343625176
10.531541189431771 7.044929871616806 -0.664038612810471
9.448763988874253 6.325396169555465 -0.994795647721770
8.131483395092481 5.445609147787434 -1.201631725974754
6.519421798316002 4.369317585441498 -1.243028259209674
5.217536596954978 3.499433840060886 -1.221177570409887
4.555336179064288 3.056444797273133 -1.266474435955960
3.837981028503641 2.577072028445874 -1.238707949860664
25.026358650420526 16.602300463792560 8.047201750327575
24.292347474489929 16.121469321262772 6.730985448077129
24.860108485851562 16.510763102371666 5.800975077437715
24.948187253477236 16.575535981342650 4.744031586810041
18.029728908441989 11.987997051652714 2.658457857039887
20.004323639167172 13.310980638235117 2.102196515073515
18.534110511713337 12.342029514060961 1.166987152305162
16.442647116734960 10.953448209786417 0.344859551200722
12.709334754145404 8.431278286651484 -0.266219007794323
11.259917246593155 7.475406992193634 -0.708314831792002
9.462488659622451 6.286862434414260 -0.993924090294294
7.990078901081634 5.310606076291887 -1.177989073354156
6.495159590097889 4.320277502580740 -1.235519404887744
5.169251474809065 3.440948544745051 -1.207057704752023
4.551379258178080 3.030804046334887 -1.262425316977770
3.801940898235546 2.533662425124612 -1.224214083334923
25.195160912398805 16.581619391737043 8.081883502371312
24.348473906897791 16.036574986663812 6.730985448077129
24.978241018693222 16.463861102877889 5.815094943095580
24.866153755378956 16.402435018871358 4.718063465613363
26.882691791144200 17.739336087247413 3.954660193497036
18.564322874733854 12.259519361886623 1.946362047040702
19.807393539032951 13.085384398541288 1.244130351807261
16.802724005834555 11.108832616881958 0.351596180085514
12.842240968000045 8.455040001568989 -0.268383106192546
10.583802614709210 6.973432502360664 -0.664247956635443
9.444456047432766 6.227471355521269 -0.989740614642406
8.018510053327361 5.289241407888350 -1.179451505475017
6.553063406815010 4.325873867998729 -1.243653997069835
5.176316908953975 3.419637035476338 -1.205912850779763
4.553802123718768 3.009526068152927 -1.260175806434332
3.817207131041915 2.524638530756296 -1.226284635695743
11.647091973230605 7.607135314634390 3.727511887566504
25.091036622616407 16.400357338276159 6.920394235834663
24.968196722314151 16.332506981730596 5.799448605474703
18.912764559956141 12.376166336248930 3.579846297980643
18.315583199317903 11.994514963590426 2.688193976830743
44.292866969529761 29.028623804961338 4.633199284465508
18.616481591245044 12.210146547379045 1.166777808480190
14.271634995014699 9.364018681454352 0.297947482697304
12.863306137227488 8.404691747853605 -0.268208582128173
10.833748219144828 7.084006346079308 -0.678378664821038
9.441129035096351 6.178101724363282 -0.987125942359976
8.025298047191420 5.253608586525538 -1.177745334667345
6.510291066197615 4.265085240192326 -1.232703584517019
5.165236339653226 3.386477336852681 -1.200570198909220
4.552872961654463 2.986130639182868 -1.257026491673518
3.825996508370101 2.511298610320238 -1.226284635695743
25.188724673484074 16.326515267334909 8.043060645605935
11.722279561644358 7.603814067442302 3.225798119291024
24.708887327785746 16.040008512884469 5.726177951250110
26.520604762915383 17.229263644569407 5.009031570588193
18.751817540348021 12.186880911924856 2.745960045604783
18.524192343057457 12.048145786610991 1.933288685628554
19.156138537693682 12.468681521654743 1.197865366488498
16.482714533043318 10.732652721119022 0.343323739434241
10.389219978012020 6.736531140850553 -0.216130601319319
11.540306768968726 7.488636947110034 -0.720980133202794
9.442585615877380 6.132086798368365 -0.985034204534033
8.056904868707065 5.234214656231283 -1.179695244161828
6.535076089505936 4.248794506367276 -1.234580798097502
5.180317063011088 3.370568068573876 -1.201333434890726
4.499572458106592 2.928760191065883 -1.239480309434696
3.831501834240701 2.495819244500173 -1.225249359515333
25.151325157566610 16.177875962449772 8.013037636374042
11.796269762963499 7.593438281091472 3.238845280442968
24.801036367449910 15.977051584505181 5.734573547046678
24.425581499623370 15.747247410257785 4.602927699343753
26.272904323556102 16.944714247038274 3.838640578575335
18.594593060015974 12.001778751457490 1.936251980881974
18.702947827400028 12.080966180008328 1.166882480392676
16.583901057856909 10.716293482188464 0.344650122323475
11.018059446991989 7.089772916630441 -0.228696333954163
11.060935425155634 7.122823125624510 -0.689473887544542
9.425414138160878 6.074264909791860 -0.981025040367640
8.081800260431640 5.210361449256191 -1.180670198909069
6.549867336142679 4.225956948656736 -1.234580798097502
5.226686645049608 3.374828817860879 -1.209347412696541
4.513042205079773 2.915150635700525 -1.240380113652072
3.815854718246226 2.466698108774464 -1.217484788162257
25.226445820631834 16.114380633559790 8.020802207727119
11.882142877713909 7.593104680910256 3.255491658464414
24.840650228484975 15.886258584137202 5.731520603120653
24.409451595833616 15.622503580046615 4.590100073210454
26.385791272129048 16.893890086695151 3.846927693926885
18.721523056327484 11.995945957635561 1.945316178127730
19.195171178973997 12.308892747154495 1.195039224851379
15.210556336826114 9.757507510374070 0.315434793947462
11.705482950810509 7.477335852628674 -0.242448830226743
10.606584234526602 6.780585571092601 -0.659747064398550
9.425365632202750 6.030090902172710 -0.978933302541697
8.089002171132522 5.177112024880252 -1.179207766788207
6.449069299687307 4.130698431654967 -1.212992841921950
5.257683319891666 3.370191650718564 -1.213926828585578
4.607987094597959 2.954869138640839 -1.263775023303834
3.856530725558862 2.474898323914147 -1.227837549966358
27.029773961099711 17.127157667230613 8.574157326156307
27.686285715397752 17.556697626329882 7.568703174453682
25.298756490052945 16.055079072457854 5.824253774873654
24.298753483298430 15.432358368895345 4.559126049132488
18.465814474398666 11.732329376888012 2.686244067336261
19.390406717337278 12.329275691958914 2.010334362217483
19.634003014017800 12.493791535422879 1.219637124285563
14.897022134232598 9.483140878449209 0.308244402495301
12.337848856161042 7.820778156712222 -0.254979658048712
10.426118344201607 6.614063612085342 -0.647081762987758
9.412716281932378 5.975796114656942 -0.975447072831790
8.088591711355649 5.137137840223580 -1.176526641233294
6.563476418753482 4.171739246419019 -1.231764977726778
5.305859067742284 3.374999769497703 -1.222322424382146
4.619917538072277 2.939812456497506 -1.264224925412521
3.868405214182406 2.463496839057122 -1.228872826146769
25.589234189636318 16.083231480477480 8.098447921257874
11.470608458629961 7.212248888751136 3.128169361705787
25.318675483276021 15.931680913180701 5.814713325104826
19.256258858699045 12.126313379054956 3.604250074526919
30.073003322002958 18.945311897453060 4.364141187338332
19.651649230198132 12.389678786155278 2.032471920875389
28.564771870415910 18.016059372044985 1.769897368223874
13.842622288052208 8.737422394578697 0.285730798191206
12.711478203322052 7.989361654514528 -0.262065335062249
10.765893669468692 6.771775218538997 -0.666550738710133
9.354657932198759 5.888662582462693 -0.967080121528015
8.064583169158126 5.078539060897862 -1.170189435376226
6.596158151071282 4.157038763012809 -1.234893667027583
5.343687416209493 3.370311872008594 -1.228046694243442
4.639412041749239 2.927250998794294 -1.266474435955960
3.871301979896349 2.444499368272415 -1.226802273785948
28.084120452652733 17.508039919109120 8.867658123302565
nan nan nan
25.327504856642442 15.814091199432807 5.804028021363740
19.193349263606660 11.988678355312043 3.584226463001770
19.830605341728283 12.396350550873725 2.871485469312085
19.765719292750212 12.365387229845584 2.039793003266192
28.707058152150147 17.966039659584645 1.774816948110711
14.613633057164638 9.152904095479318 0.300984201417391
12.533980639383563 7.816899827332572 -0.257841852704427
10.830129803243265 6.759533957907315 -0.669062864609794
9.344739335734756 5.836973665809504 -0.963942514789099
8.070477270278420 5.042993901477834 -1.168483264568554
6.595555097863472 4.124562174440406 -1.232077846656858
5.327127918577286 3.333932406085703 -1.221559188400640
4.672725919387456 2.925516228989244 -1.272773065477588
3.887996545664874 2.436099740844205 -1.229390464236974
10.734722492443490 6.648030997656506 3.383282557580151
11.538068217716409 7.148330729665569 3.133568187010039
36.933476897796950 22.899725882732781 8.447114225319639
24.692336262678094 15.321832482235562 4.602614830413673
20.751526503242797 12.881538956591992 2.998960802513869
nan nan nan
19.141645192968333 11.896091959384899 1.181117860490756
14.599864252546526 9.080545845162970 0.300111581095527
11.523128753179382 7.136292269786105 -0.236584821663815
10.875078979780504 6.740207194204801 -0.670528271384596
9.256363147714834 5.741425155609410 -0.952960891202895
8.040738195280420 4.989355496823197 -1.161902320024676
6.611836485217622 4.105905523202402 -1.232703584517019
5.339242941851857 3.318216610403950 -1.221940806391393
4.658724127279055 2.896417098585429 -1.266474435955960
3.885788986603618 2.417749768658161 -1.226284635695743
nan nan nan
13.166655918091214 8.093846608601330 3.568173624002387
33.892942588723145 20.851077401012759 7.735015054574374
24.795432156054652 15.260217800674445 4.611375160455926
10.482693106166499 6.456564342467055 1.511667335597449
28.714296106649350 17.699713177121250 2.951093449435705
20.089165668601222 12.387955334281353 1.236907989845734
14.566806595170501 8.989620293662576 0.298785198206294
12.660512922923548 7.779664501484589 -0.259377664470908
10.891735230967267 6.698020065981690 -0.670109583734653
9.264470542291479 5.701769478890822 -0.951740710804427
8.022607047903845 4.939401925070904 -1.156783807601660
6.390682298623187 3.937726748857557 -1.188901934305755
5.357477464606331 3.303680831289757 -1.223467278354405
4.638952304698801 2.861720961071818 -1.258376197999581
3.890917198705144 2.402141411288641 -1.225249359515333
27.178157385516695 16.570091767417697 8.529122812308469
11.213358225469950 6.839291640411714 3.032340212555301
34.493377203144284 21.054847368095601 7.855224721661596
24.807128853577737 15.154224367017184 4.604179175064075
10.478065491829064 6.403371351468008 1.507767516608485
28.986667378782915 17.728276424422521 2.972708073637125
20.760940070769234 12.702392281961037 1.275531925553027
14.715769060154425 9.010770631043256 0.301193630294639
11.074111288290561 6.751710120987006 -0.226392616304442
10.887770229409783 6.643315309800517 -0.668434833134879
9.328528022951446 5.696392826952829 -0.956272809427305
7.988979421972861 4.880322400010410 -1.149471646997351
6.706069006021191 4.099830831912347 -1.244905472790157
5.353904835850466 3.275737959525887 -1.220032716437627
4.590739567511944 2.809903528655739 -1.242629624195510
3.922341438623923 2.402672371993652 -1.232496292778204
27.361039255805025 16.544337755746298 8.567428030983642
11.338864824213598 6.861652052939291 3.059784241185252
45.765898011868977 27.716813038126524 10.400235101993951
24.825336502054128 15.040680852585719 4.597296058602305
25.157733689606719 15.254074761110633 3.612451077215381
28.816722856247289 17.486416692140153 2.949001711609762
28.499952614595756 17.301002305912323 1.747288235126923
18.900051264814813 11.482376960885437 0.386012325579837
11.053125424186769 6.686103112490583 -0.225485091169703
10.825465166473483 6.553552628005183 -0.663201237510584
9.239296846870641 5.597721310427531 -0.945116874355605
7.985594839262379 4.840058836222838 -1.146546782755627
6.500775496046742 3.943215186536256 -1.204232511879697
5.365306677374369 3.257029387117014 -1.220032716437627
4.548884902450190 2.762504129980717 -1.228682658826191
3.914195805642612 2.378932749995698 -1.227319911876153
11.792202113606299 7.077068962475202 3.685065564169690
10.878230875958213 6.531133479498778 2.929312629665810
47.387019649328330 28.472993960366594 10.745981001616251
25.125621911443577 15.108936179336817 4.643600660254213
10.505503544437056 6.319832314097915 1.505330129740382
19.114033051446949 11.507583877065091 1.951940014576552
28.366838258959401 17.084971896548950 1.735460309016017
12.038102916909999 7.256117938447867 0.245345929695332
11.112403803173978 6.669089224920282 -0.226218092240069
10.731848183880166 6.445795911824873 -0.656083547461544
9.219504717645281 5.541827590167244 -0.941107710189213
7.999038748065652 4.810108436978483 -1.146059305382007
6.783610580754217 4.082452814111171 -1.253978671762491
5.380006699627895 3.240306953749294 -1.220795952419134
4.631943557416426 2.790860205469543 -1.248478351608451
3.912549853286770 2.359269701350422 -1.224214083334923
10.815377402521408 6.437029429769760 3.372412157685845
11.232461602754210 6.690577893425533 3.018393247185981
47.830137028853713 28.512484085602424 10.823831071729881
24.848297980357742 14.818437049933822 4.582278349958443
24.975538882465248 14.906139036561143 3.571259239144442
10.162030929502917 6.069811863477833 1.035584535327674
9.824048062513363 5.870260261888002 0.599770058544136
18.543830539902299 11.089463892478257 0.377146503109697
12.912228204928043 7.688072347574505 -0.262309668752371
10.761145804050683 6.412385032049775 -0.656502235111487
9.228525910541304 5.503488825558212 -0.940061841276241
7.964637633980752 4.751645851664255 -1.138747144777698
6.791035421200274 4.054698075109854 -1.252727196042169
5.391284704839855 3.221507484690498 -1.220795952419134
4.639984588874874 2.773674819484591 -1.248028449499763
3.914130095886144 2.341630795445021 -1.222143530974103
11.415506417422858 6.743046508614838 3.552550213077200
27.593274934101061 16.305619352603689 7.399539981587095
9.843408539639951 5.821375582494545 2.222924796136747
24.951699099976373 14.768152191452600 4.592290155721018
10.764591430845497 6.373771626417630 1.536041204278479
nan nan nan
18.560193589148174 11.002718192514415 1.130770670585044
13.753231731412944 8.159579478756330 0.279133788557912
10.989959697446468 6.491679532901017 -0.222797420578361
10.719849461504015 6.337176218350588 -0.652629374349510
9.155083610840965 5.416458296535864 -0.930649021059494
7.953842657362479 4.707637680309639 -1.134847325788733
6.791550886990263 4.022914352510170 -1.250224244601525
5.419385099658511 3.212680231046603 -1.224612132326665
4.619467564423442 2.739568668922488 -1.239930211543384
3.935570299693720 2.335841691644629 -1.226284635695743
11.425640414372491 6.695344197365612 3.548409108355560
11.490722590626087 6.736176343038573 3.075080912880634
9.885682301600719 5.799895357696539 2.227885830016537
27.660464513633965 16.241279610299824 5.080365686646537
10.764523104644899 6.323086897836908 1.532872601349945
9.965414243203828 5.858369700028625 1.011355238843825
9.926768213484138 5.837982392890027 0.603538247393628
18.806918877067812 11.069280969535550 0.380916222900150
11.478382369509388 6.726250608776857 -0.232221720054494
10.719508110598301 6.286583414386366 -0.651268639487193
9.117231328606181 5.351187056836007 -0.924896742038148
7.908601456070802 4.643660539798915 -1.126072733063563
6.776599553232638 3.982169365929120 -1.244905472790157
5.444104769199517 3.201705439688131 -1.227665076252689
4.615565428598514 2.715521578985318 -1.236330994673882
3.967005883435675 2.335812532967756 -1.233531568958614
11.432240325280642 6.645711623605819 3.543232727453509
nan nan nan
9.885505992230055 5.753501878550421 2.223306414127500
26.623851102810949 15.501672774054763 4.879503833534882
10.796820068838537 6.291469812864840 1.534335033470807
10.094232149113115 5.886782199090429 1.022336862430030
9.947086097716939 5.803295938390479 0.603538247393628
12.455986669484318 7.272859462048220 0.251768415264252
11.396333855809662 6.624838720768195 -0.230092526469146
nan nan nan
9.127245926957736 5.314316818466757 -0.924025184610672
7.890456342475594 4.596043281289555 -1.121197959327357
6.848482154872319 3.992315106342711 -1.255543016412893
5.450160370926567 3.179714464463555 -1.226520222280430
4.670458547619430 2.725916132336732 -1.248478351608451
3.871711645486981 2.261539221118473 -1.201438007365901
nan nan nan
9.749879186242959 5.624558487066896 2.598634579780328
10.002442240701349 5.774912720222608 2.245058639600426
25.052773558330454 14.470056190579243 4.582278349958443
nan nan nan
24.978959105772979 14.450687760813631 2.524727555914162
24.999452577543313 14.468367625525834 1.513765198370907
12.012362308504615 6.957721898401388 0.242309210975244
11.779709968307198 6.792797416770944 -0.237352727547056
10.678372442331217 6.162676484333649 -0.646139715775385
9.059476451361869 5.232599616294610 -0.915309610335906
7.894419899535998 4.561520424731982 -1.119491788519685
6.763194098746013 3.911029939963452 -1.237396618468226
5.452730445149013 3.155753446944707 -1.224612132326665
4.668140049127526 2.702761563977815 -1.245329036847637
3.983216125600489 2.308060910188188 -1.233531568958614
9.442604709648858 5.401266903596897 2.914820085944589
11.418555796578211 6.534176476517904 3.037289135750866
10.092388926606393 5.779965636582932 2.260704977221303
25.125412749947422 14.395283663747048 4.586345646049489
31.272931680711132 17.931928525072379 4.426294552474956
10.212846106256407 5.860793612293030 1.030180879277319
9.408832592930743 5.401581665679243 0.568577828623342
12.475247059775132 7.167791810129700 0.251140128632510
11.069111720441146 6.331645623875594 -0.222587991701114
10.616619510970343 6.077734867624170 -0.641115463976062
9.069042669962869 5.195991926262568 -0.914438052908429
7.882738480947255 4.518141719613489 -1.115591969530720
6.540344992534970 3.751756959572927 -1.194220706117123
5.446686644029604 3.126925941608883 -1.220795952419134
4.701204116119619 2.700037785542821 -1.251627666369265
nan nan nan
9.484924406653004 5.381619954561841 2.922067019207459
11.332830407565870 6.432712210004941 3.008495400794851
9.827427652752094 5.582755912428494 2.196974772765537
26.606110863495466 15.120517401939715 4.846965464806513
26.257147398559198 14.934326104031509 3.708971597192258
10.266140620760311 5.843835503527383 1.033492797501731
9.448457180870550 5.380565977410770 0.569833891573172
16.072170936955278 9.159970420602578 0.322904423902620
11.510303158922351 6.530792920148454 -0.231000051603885
10.481459993667588 5.951878513411920 -0.631694991852332
9.031694392772309 5.132801743763519 -0.908860085372579
7.903638770357748 4.493541669219224 -1.116323185591151
6.543099831809312 3.723042517455648 -1.192343492536640
5.431978120229538 3.093321597828723 -1.215071682557837
4.688588214251990 2.671070832537055 -1.245778938956325
nan nan nan
9.497850451396566 5.343031109446136 2.919996466846639
9.512010157767925 5.353182429791532 2.519901710759976
nan nan nan
28.088719154835637 15.833639393371280 5.106959545703377
9.885262211323349 5.574606063322436 1.393454072494456
24.086851346700563 13.594406742375188 2.419792041645981
9.503700549763616 5.368179882363605 0.572032001735376
14.733758196080391 8.325778317694249 0.295399431357461
12.091873485171028 6.802302956165814 -0.242169591723746
10.464915916839697 5.891865264900951 -0.629392209777642
9.001844067012073 5.072278452831803 -0.903979363778710
7.899304099992925 4.452845709639091 -1.113398321349427
6.565303853381065 3.703888954745151 -1.193907837187042
5.492856831114572 3.101384199990151 -1.226138604289677
4.669501653895822 2.637575195877843 -1.238130603108633
nan nan nan
28.833868221344421 16.081698662276064 8.846434961604158
11.118227220113232 6.206129578326279 2.939660378165628
9.844843905986599 5.499842564591707 2.192013738885747
27.986199135624368 15.640958026399325 5.077862735205894
9.883871080589710 5.528437481176613 1.390529208252733
23.386593614876436 13.091760361536140 2.344838102882995
9.519826876961881 5.331359215113390 0.571822657910404
12.655513661796460 7.093232428584638 0.253234417404984
11.418786982519290 6.371286618608107 -0.228242571386794
10.530757189196683 5.880618106829287 -0.632113679502275
8.962101157872540 5.008749039457654 -0.898227084757365
7.876680746322323 4.403932389077197 -1.108036070239601
6.626460502876852 3.707958263431021 -1.202668167229295
5.529343191837662 3.096580973617031 -1.231862874150973
4.702481486014417 2.634594420146467 -1.244429232630261
nan nan nan
28.757488568749604 15.920858024269082 8.807612104838782
32.611603578747179 18.062028619920945 8.606627339196274
9.802929377295278 5.433852484587030 2.178657109209389
9.618921567751189 5.334050152402778 1.742054202688011
9.898678301646198 5.493704384741990 1.390041730879112
34.423738178156569 19.120679213350275 3.445092199329432
nan nan nan
17.759290605689689 9.876576287929620 0.354702708431350
13.045875126532012 7.222519629811005 -0.260285189605646
10.496042775355368 5.815656972960093 -0.628868850215213
8.940328374387139 4.957744960496609 -0.894392232076468
7.866939296464457 4.364306190438927 -1.104623728624257
6.536825073488925 3.629389375491086 -1.184208900354548
5.524136492569659 3.069645564745486 -1.228428312234195
4.673720738156122 2.598155252889999 -1.234531386239131
nan nan nan
32.407936622006261 17.794323056718422 9.906557770344085
32.662496992285732 17.941515323739562 8.603478024435461
9.756461648539540 5.363660180224956 2.164155625560771
9.225535296245548 5.073877947810958 1.667591397328861
nan nan nan
24.347716864040372 13.412952897976595 2.431993845630653
9.553227124061529 5.267140216529417 0.571717985997918
14.125313900064286 7.791160218290269 0.281577125459132
12.892216183479587 7.078767845099771 -0.256724898692440
10.509277743629957 5.775135989776842 -0.628450162565270
8.964562772656652 4.930347768812982 -0.895089478018449
7.829949168378647 4.308110878714258 -1.097311568019948
6.244908888534614 3.438847317334583 -1.129143968660386
5.539976164860078 3.053186846841714 -1.229573166206455
nan nan nan
nan nan nan
11.485490647895691 6.251694794169063 3.503892232597926
9.952840409769504 5.421958663177463 2.616630664127838
9.735479686892221 5.307955837059111 2.155378411773450
9.190289649281416 5.014871010083172 1.658205329426447
9.039464636449919 4.934617877330309 1.264516307171810
24.280739156871789 13.265789450163673 2.420663599073458
19.954617455818170 10.906734264235943 1.191794395564317
15.705032881996663 8.591130425988132 0.312467884853124
12.567363454832041 6.843415106858242 -0.249778840930402
10.459223652136522 5.700185956989317 -0.624263286065834
8.969474460497759 4.892347246593481 -0.893869297619982
7.824029033682952 4.269342738956390 -1.094386703778224
6.366096910584480 3.476676426915926 -1.148854711255455
5.495473022312616 3.003698970594159 -1.217361390502356
nan nan nan
nan nan nan
11.529343052477818 6.223494297180256 3.510621527770591
9.993994830136655 5.399225238508366 2.622479391540778
9.066612985571547 4.902299353656359 2.003494451453721
9.153009196275086 4.951078343296151 1.648193523663872
9.053143217790451 4.901144049669806 1.264028829798190
23.706769176674932 12.844951206756642 2.358957333208116
24.306245863155549 13.180740840937240 1.449077956454629
14.000076445556779 7.595094874869923 0.278016834545926
12.680910741320581 6.847964430911443 -0.251558986387005
10.347278403643275 5.592418866939219 -0.616412892629392
8.942686367483550 4.837309769442393 -0.889511510482599
7.725403648720015 4.180595887546335 -1.078543689135555
6.433777381538752 3.484537415573961 -1.158866517018030
5.485212466725988 2.973270939037817 -1.212781974613319
4.745211689102089 2.573223601109445 -1.246228841065012
nan nan nan
11.549917511040398 6.185227398965706 3.510621527770591
nan nan nan
32.938629546697285 17.668940602675718 7.265624925948074
9.894272282930972 5.311934211465956 1.778659867507425
9.132303501793821 4.904909805362088 1.272803422523360
10.627751603371491 5.712887571814186 1.055630356159636
15.103432104240344 8.125560989388303 0.898817712516317
14.201270904718829 7.643399657346115 0.281507315833383
11.760522201110108 6.300652202367014 -0.232884911499111
10.321761857241949 5.534480148701622 -0.613796094817245
8.921811305950405 4.787843677609834 -0.885850969287198
7.712989867962742 4.140869947858843 -1.074887608833401
6.340891687547469 3.407084003765905 -1.140094381213203
5.462189354727457 2.937397810966751 -1.205531232789010
4.750286427400907 2.555627212179992 -1.245329036847637
nan nan nan
10.093869794558016 5.360228332772556 3.062346941653026
10.033955975330384 5.332902875582398 2.623379195758154
9.994149133263610 5.316221013269592 2.200409334682315
9.867418739294058 5.253228690325846 1.770525275325333
27.803780114117359 14.808439767238863 3.867889220992570
nan nan nan
14.830373519605830 7.912030542756098 0.880918815481231
16.720607917477139 8.924223205740663 0.330827816425146
11.660593118461067 6.194827254906856 -0.230476479410766
10.293404087131153 5.473100037030449 -0.610969953180126
8.915604610022095 4.744503780896815 -0.883584919975758
7.718635990004715 4.109257051330459 -1.073668915399349
6.345772622756402 3.381213784557828 -1.138842905492881
5.406581221168750 2.883208566088829 -1.191029749140393
nan nan nan
nan nan nan
10.027051450779998 5.279956749976300 3.036465037142773
10.637916611514148 5.603992461164460 2.775896010603294
9.984043751702901 5.263989112168051 2.193921828839513
9.327547648538767 4.922019767462954 1.670407217699585
27.959687419906817 14.760185263508845 3.882026064827568
9.732940463100462 5.142457026833416 0.963070957361623
14.795711419688978 7.824009864735907 0.877150626631739
16.537558715310993 8.748796954182781 0.326569429254449
11.186024030299500 5.890238359112296 -0.220668226993013
10.265688564783140 5.410194025666976 -0.608143811543007
8.843058556336992 4.664388487927853 -0.874695034215497
7.723111415786067 4.075380634562923 -1.072206483278487
6.352882556393693 3.355165127331707 -1.137904298702639
5.483068904917030 2.898236331064493 -1.205531232789010
nan nan nan
nan nan nan
10.036060280274739 5.237807362082342 3.033359208601543
10.534775403664753 5.502765972016484 2.743952960886465
10.024975636145333 5.240930609226942 2.198882862719302
10.125290655471961 5.297875221851848 1.809946760515471
10.379930718549938 5.433418855755946 1.438545729554361
10.250286056974327 5.370115059029043 1.012401107756797
9.282905492782623 4.867435785997794 0.549318196725938
14.450070032133292 7.580023203761902 0.284823273056467
12.238182687778274 6.389810308384109 -0.240982828086011
10.181843026847266 5.320676354678124 -0.602072840618826
8.808086892702411 4.606714182476259 -0.869640001136133
7.716183599931937 4.037353523204469 -1.069281619036764
6.308557275093433 3.303643992810843 -1.127892492940065
5.493152232935586 2.879079191784242 -1.205531232789010
nan nan nan
nan nan nan
nan nan nan
11.864516007026715 6.147354062834586 3.084978759271765
10.146871050625862 5.261885381739743 2.221779942164488
10.130530315452518 5.257899516044996 1.807756678004908
10.468361803903640 5.435558658786899 1.448295277026773
10.478419265906856 5.445425493247082 1.033144174530740
9.347685432590888 4.859877949387384 0.552144338363057
12.745562055221676 6.632092560454294 0.250791080503764
12.294818401789346 6.367584691060700 -0.241680924343502
10.156874306316952 5.264823574921001 -0.599560714719165
8.825083431381492 4.578397699055254 -0.869814312621629
7.653767093000723 3.972421683870360 -1.058800855503921
6.280912398515896 3.262672741789629 -1.121009376478294
5.530539837348882 2.875337301149493 -1.211637120641060
nan nan nan
nan nan nan
nan nan nan
40.708824316858703 20.912513041923066 10.565951022531339
10.229778415349994 5.259649191934701 2.235899807822352
9.982854813997770 5.134896337459115 1.778034129647264
10.520805521790651 5.416247806769561 1.452926312076168
10.941911888771957 5.637871447079197 1.076896357390064
9.298907328905589 4.793359664710658 0.548271477601080
12.772188975840708 6.589395539745402 0.250860890129513
12.194227742288065 6.261601907153001 -0.239272492255157
10.129003823154322 5.205600874650250 -0.596839244994531
8.791402375563647 4.522047119839163 -0.864933591027760
7.625224444977415 3.923881507872681 -1.052951127020474
6.253627824201390 3.220829972711349 -1.114126260016524
5.592894530496008 2.883000561595618 -1.223085660363652
nan nan nan
nan nan nan
nan nan nan
46.526560290911561 23.686012966152926 12.053327393852975
12.685723804100634 6.463699123446552 2.767493668941406
10.136219675948791 5.169119463794270 1.802125037263460
9.748406777734408 4.973492462363851 1.343731380385156
nan nan nan
11.383170262077149 5.815038129980869 0.669900239909681
12.789132640239137 6.538897548876207 0.250721270878015
12.299077724328994 6.258583614946757 -0.240878113647387
10.115980145971454 5.152125586117037 -0.594955150569785
8.751115086919231 4.460839903859746 -0.859355623491909
7.597113000422157 3.874263377727238 -1.047101398537027
6.198531765935616 3.163762477171704 -1.102237240673467
5.580695293775597 2.850871521549938 -1.218124626483862
nan nan nan
nan nan nan
11.615820443472400 5.857398123351148 3.485774899440749
9.344059762316784 4.715930991798325 2.416424225761798
11.397434030405963 5.757258203710856 2.482043411858095
9.975267513724431 5.041055649948563 1.770212406395253
9.478741905788375 4.794288164394638 1.304245713121888
nan nan nan
nan nan nan
10.341539567302561 5.242024273170935 0.202378105046740
11.947706666026598 6.027370936077437 -0.233583007756603
10.025146972303343 5.061870143126377 -0.588570163908146
8.711508136377233 4.402407980541553 -0.853951967441555
7.584017128582700 3.834286121459631 -1.043445318234873
6.211300165316294 3.142998172470830 -1.102550109603547
5.597618473298438 2.834921978722764 -1.219651098446874
nan nan nan
nan nan nan
11.665262803596031 5.836436322183549 3.495092385064440
12.294230016257723 6.153808201426722 3.174059376791935
11.706087414656970 5.864527568731372 2.545010380332355
nan nan nan
9.212465341625427 4.621306113574045 1.265491261919051
9.983646051569400 5.012520937885502 0.977364499172239
16.043241295579794 8.058387418410481 0.940895821335644
14.680717657197807 7.380421631601570 0.286812847390317
12.010548820835286 6.009191954567250 -0.234420723265592
10.024019040345644 5.019654816879140 -0.587523444783287
8.722496764692393 4.371709908061078 -0.853603344470564
7.610886484486927 3.816233711147011 -1.045395227729355
6.189909230977922 3.106434867323558 -1.096918468862099
5.598216751150821 2.811937974493840 -1.217743008493109
nan nan nan
nan nan nan
53.806366993344305 26.674606407589771 16.091815310204126
12.570502370412013 6.237317207091935 3.239745084660344
10.653888956626526 5.290954263716721 2.312223405972970
nan nan nan
nan nan nan
10.008216902833627 4.981191990736694 0.978061745114220
15.525968522743428 7.730814792471676 0.908970888027449
11.354185539529285 5.658514007493568 0.221436132876253
12.140730759928209 6.021429792978646 -0.236549916850941
9.975288003620056 4.951775968337563 -0.583650584021310
8.682390524211243 4.313754289902321 -0.848199688420209
7.583276271038810 3.769321336497993 -1.039789237932718
6.186566193437701 3.077770200882596 -1.094415517421455
5.555274873416974 2.766127028065718 -1.206294468770516
nan nan nan
nan nan nan
10.337860406915922 5.082376402687498 3.086675931892662
11.076098136571160 5.447714953535746 2.849679956428082
10.485585045605140 5.161820869664959 2.271771898953142
nan nan nan
9.933567866704891 4.896538377342594 1.359818133714636
nan nan nan
25.451599094515604 12.562386455235906 1.487492548336949
15.040255498489154 7.430091321916269 0.292816475204743
11.151343013087191 5.482306817576412 -0.216898507202559
9.893948996634768 4.868426460956584 -0.577893628834586
8.636624490165071 4.253491441676162 -0.842273097913368
7.566115871769132 3.727912638451759 -1.035645680256943
6.222075186661456 3.068387918724969 -1.098795682442582
5.550812725075216 2.739767129526332 -1.203241524844492
nan nan nan
nan nan nan
10.380733729457205 5.056295535525719 3.093922865155533
11.249193259732415 5.484167951251225 2.889271341992602
9.818947774170416 4.791142392478655 2.123704118540944
45.951647294554057 22.431975096984367 8.098925124062832
nan nan nan
32.003988081023756 15.650896196671036 3.116863672141752
16.569878553791487 8.106744326070668 0.966749783719658
14.599156595532234 7.148893733789278 0.283741223857355
11.159626176165505 5.438092078254676 -0.216689078325312
9.858824086770364 4.808469792055974 -0.574858143372495
8.592334718331292 4.194475057467735 -0.836520818892023
7.563029020593121 3.693638982232151 -1.033452032075651
6.262917859795007 3.061397581721172 -1.104114454253949
5.560342479632618 2.720374485632979 -1.203241524844492
nan nan nan
nan nan nan
nan nan nan
9.250437422947826 4.469844535148289 2.371883917001713
12.663461121107323 6.124483223156720 2.734292903745887
11.667356092982649 5.647758869963045 2.053045919187990
10.273020498189098 4.975023089774247 1.401497449159196
32.099661084528300 15.559073719152213 3.120872836308143
10.045825207279526 4.871492089914747 0.585115990796112
14.235439251876929 6.909287798354048 0.276201784276449
11.389218709501391 5.500859614230774 -0.220772941431636
9.835988979029031 4.754902855229385 -0.572555361297805
8.565673717435160 4.144497811700051 -0.832511654725631
7.549074701528360 3.654242937799209 -1.029795951773496
6.236233902793103 3.021430029629068 -1.097544206722260
5.530941273964609 2.682102874572927 -1.194845929047924
nan nan nan
nan nan nan
nan nan nan
9.274771656111394 4.441735831317012 2.374133427545151
12.633421428659478 6.055632688396081 2.723225982014048
11.630006991654449 5.579654916341036 2.043034113425415
nan nan nan
nan nan nan
21.398234591008247 10.284479160070639 1.244235023719747
nan nan nan
11.920599389243746 5.706278841143237 -0.230685908288013
9.852526763199059 4.720539877884246 -0.572555361297805
8.565716521984198 4.107680699206909 -0.831117162841668
7.538517369346577 3.616706811266780 -1.026627348844962
6.234277674608609 2.993657498520681 -1.095354124211696
5.469490306266653 2.628761678061280 -1.179581209417800
nan nan nan
nan nan nan
11.324148203467040 5.372257586437462 3.358435929250309
nan nan nan
10.682539653534810 5.074727785359131 2.298866776296612
11.621833227174101 5.523424431707053 2.038028210544128
10.196360321512442 4.850314115782706 1.386385650576958
nan nan nan
11.224587649504647 5.346641201913418 0.651582655224651
13.209325594858766 6.297695379791045 0.255433420616081
12.047040383582445 5.715202850754321 -0.232745292247613
9.814818659245375 4.660418544687791 -0.569415203923229
8.549411365152881 4.063216765198894 -0.828153867588248
7.534961284131310 3.582698709016262 -1.024433700663670
6.273228506076805 2.985459415453727 -1.100360027092984
5.549530947140565 2.643424572891528 -1.194845929047924
nan nan nan
nan nan nan
13.723364899495561 6.448950864991787 4.062941370019371
11.767285487088211 5.534755894519629 3.002196771273222
9.620222755268527 4.528984212339508 2.066843037918733
38.883298839371896 18.313672567740976 6.807402180690686
10.584912922858765 4.989910870738894 1.436839558746689
10.404046341862331 4.909086754428718 1.006474517249957
11.662205553634422 5.505230426271441 0.675866538921377
14.426341846896589 6.816220331083585 0.278505501926170
11.324949781863420 5.324289143779495 -0.218434318969040
9.776811539493679 4.600618294629491 -0.566275046548652
8.511270876281149 4.008729521830887 -0.823098834508884
7.531259829108376 3.548759594782281 -1.022240052482377
6.276464927141580 2.960173037283652 -1.099108551372662
5.604884371203569 2.645827140859056 -1.204767996807504
nan nan nan
nan nan nan
18.278368833835618 8.515576912962810 5.403106385560223
10.566018971215502 4.924770636689074 2.691314414170001
9.506093995319196 4.434784485117142 2.038984924593758
34.568629642771079 16.134309678181626 6.042124777713878
10.726364250928675 5.010905481775835 1.453657528136599
nan nan nan
10.704437959060607 5.007492122234324 0.619343706178997
nan nan nan
12.325913864179409 5.742430765412486 -0.237352727547056
9.751178107282325 4.547049027459113 -0.563867592561477
8.452995140321427 3.945289203288695 -0.816126375089071
7.525614777799479 3.514050190218137 -1.019802665614274
6.286759620971280 2.938246051715980 -1.099108551372662
5.567850144007377 2.604617434425763 -1.194845929047924
nan nan nan
nan nan nan
18.206251884500880 8.404758613376849 5.373083376328331
nan nan nan
9.555375400244030 4.417227247707535 2.046235666418066
34.427517845898812 15.922332153103850 6.007709195405027
10.723974382746947 4.964259956664070 1.450976402581686
10.965933277051022 5.080914554099449 1.057373471014589
11.618812913259847 5.385880773262452 0.671156302859512
12.273244248923902 5.694446877770234 0.236165963909320
11.910146526528489 5.498216065583393 -0.228975572457160
9.732542593651315 4.497066026578197 -0.561878826224245
8.378105905833847 3.874777892605426 -0.807585112299801
7.536033667584932 3.486925889024446 -1.019558926927464
6.293392755196479 2.914622983725020 -1.098482813512501
5.576908034292522 2.585166142220095 -1.194845929047924
nan nan nan
nan nan nan
12.397666247021393 5.670860884897042 3.652972002576978
nan nan nan
12.332006025783951 5.648636887350496 2.636598698113096
34.677650737887397 15.898636528697494 6.042124777713878
10.647411856306633 4.883760041734990 1.438301990867551
10.145256010685300 4.657718062970479 0.976667253230257
11.542238747860106 5.303956108903409 0.665713363410246
12.298497461456421 5.654076437147184 0.236270678347944
12.298418922638957 5.625463811080325 -0.236061249470697
9.664645906565799 4.424820368295760 -0.557063918249894
8.369845209372015 3.835548930053048 -0.805493374473857
7.528310066845988 3.451498670795205 -1.016877801372551
6.307119077580451 2.894284943387609 -1.099108551372662
5.564489228289230 2.555850006535150 -1.190266513158887
nan nan nan
nan nan nan
nan nan nan
13.976756899262499 6.337196985573489 3.542979105915874
9.607433500842497 4.360147133420044 2.050815082307104
9.752325342211863 4.427956315190659 1.696375338896263
10.469214928865201 4.757862156484673 1.411978212692039
9.969213874803525 4.534829896534620 0.958190235767754
11.268925438380286 5.128421065608516 0.648861185500018
nan nan nan
11.394541800037121 5.163998267647469 -0.218364509343291
9.640017365294325 4.372905816343799 -0.554761136175205
8.357784694945980 3.794777575846989 -0.803053013676922
7.502357589011947 3.407958002648973 -1.011759288949534
6.275824291796025 2.853446408600684 -1.091912565980812
5.594819846729964 2.546169296899583 -1.194845929047924
nan nan nan
nan nan nan
11.328431280209749 5.086446573478614 3.327377643838007
10.669302063187784 4.792736391934325 2.700312456343755
9.617222972893396 4.324169081422385 2.049670228334844
9.679448975665196 4.354178686954039 1.681044761322321
10.241399183371039 4.611263934769043 1.379073489972649
10.190240615386859 4.592508287164117 0.977887433628725
16.558313769933257 7.469408152489053 0.951991044059148
10.915985764059558 4.926463134792654 0.209044924305782
nan nan nan
9.637005523141022 4.331042009874761 -0.553714417050346
8.350992876476216 3.756589377047558 -0.801135587336474
7.514207875507106 3.381749125066986 -1.011759288949534
6.310961472786710 2.842880851698521 -1.096292731001938
nan nan nan
nan nan nan
nan nan nan
10.297642841479909 4.580499554106883 3.019900618256212
10.803473300572056 4.807757055869941 2.730005995517146
10.928874249482774 4.868134050822928 2.325580035649328
9.855173033527659 4.391928405459538 1.708890096099482
nan nan nan
11.174070945237597 4.989044485370425 1.070621143912233
18.874540329243938 8.435084352182376 1.083458966141423
10.757864678672341 4.809972298061705 0.205694062269823
11.222026344823787 4.991675032813025 -0.214385360675591
9.626520751817065 4.286003178426853 -0.552249010275543
8.349496101022041 3.720927980929240 -0.799741095452511
7.518714407553338 3.352265605136485 -1.010784334202293
6.313630952087083 2.817614034973422 -1.095041255281616
nan nan nan
nan nan nan
nan nan nan
10.314362044323575 4.542726039997676 3.019900618256212
12.162906039683243 5.361945166371882 3.068782283359006
9.539407142267391 4.209368833566118 2.026773148889659
nan nan nan
10.681878973190445 4.720180743466774 1.433914694504965
10.340491125471784 4.573640963745061 0.989217680185920
10.677283095593747 4.724833690229069 0.611912000392499
12.217173629232960 5.411355323137736 0.233233959627857
11.427864160877464 5.035524322010894 -0.217980556401671
9.634113400839395 4.249150300330378 -0.551830322625600
8.358788345210295 3.690150820077203 -0.799392472481521
7.479526119944618 3.303543255398238 -1.003959650971605
6.337881344952799 2.801948031564772 -1.097544206722260
nan nan nan
nan nan nan
nan nan nan
17.919297487360623 7.817577744170712 5.238497472875021
9.186612828656694 4.011623199073956 2.314296447089683
11.399730200659603 4.982789237271916 2.418313207402329
32.590606432485870 14.252035595304335 5.633830823958875
10.216385428097144 4.471925393503332 1.369323942500237
10.715901385937784 4.695031892003807 1.023557042828497
10.694721596942621 4.690202720214749 0.612016672304985
12.029064275939097 5.277886212449691 0.229289715773031
nan nan nan
9.608622306036292 4.197903865278225 -0.549527540550910
8.346061831013719 3.649774684083580 -0.796952111684586
7.507379904144978 3.284575849853963 -1.006153299152898
6.318671824430918 2.767128914558037 -1.092538303840972
nan nan nan
nan nan nan
nan nan nan
17.994357671929887 7.775670259964669 5.252473701310556
14.051244102900807 6.077604866090773 3.534430965850807
11.442277025221154 4.953886631111822 2.423655859272872
9.979625364306035 4.324774764097734 1.722656329023022
9.772971362941945 4.237245288849210 1.307901793424043
10.971652860825778 4.761505392538052 1.046391847428384
15.435458267117175 6.705122584998057 0.881965534606089
nan nan nan
