# This PCD file was generated using the MATLABÂ® pcwrite function
# from Computer Vision ToolboxÂ®.
# .PCD v.7 - Point Cloud Data file format
VERSION .7
FIELDS x y z
SIZE 8 8 8
TYPE F F F
COUNT 1 1 1
WIDTH 947
HEIGHT 1
VIEWPOINT 0 0 0 1 0 0 0
POINTS 947
DATA ascii
19.660053907991475 41.218160178527988 10.543006014988265
12.324172545242352 25.861393201772547 5.568569721069084
12.501064183554695 26.244381349206012 4.604179175064075
17.537657031646024 36.851189284715105 5.011023662132854
nan nan nan
14.824549703654192 31.206371406161335 1.810614742180885
nan nan nan
11.767519554195191 24.660040478181347 -0.476939363118084
10.363323665664899 21.736922523111136 -1.262029248842347
nan nan nan
5.559596120677650 11.676908058711097 -1.587957544569072
3.972929917282196 8.351917834952177 -1.464852330636722
3.059944578963587 6.438427106373853 -1.385654924424468
2.548708145633259 5.365150010521732 -1.371301627280201
2.156154585271566 4.542897142202689 -1.347411948803723
12.767140467004301 26.516313937686199 7.885698666183602
14.345383410188015 29.807505048049066 7.637088294974218
12.236560575788413 25.448424095076597 5.488811561001688
12.575483850940023 26.164976305518834 4.597921796462465
nan nan nan
12.089663553810473 25.199205643665284 2.445241518528297
14.849649703044973 30.979732823957690 1.800461566669754
10.828147777402810 22.600087814648827 0.437427114944074
11.862202473098934 24.636831213849213 -0.477288411246829
11.061657836838625 22.994696992114886 -1.337288353919701
8.048198884366949 16.745354342435370 -1.625454602243825
5.553903631076875 11.560806939837212 -1.574795655481316
4.011461878214474 8.357588327714284 -1.468293888867607
3.096831749027123 6.457800598661061 -1.392142430267271
2.566578156952219 5.354463382249434 -1.370851725171513
2.164489326233939 4.519661910410764 -1.342753205991877
12.984152741469343 26.716069411751786 7.959203274992717
14.407634177374057 29.671351504832057 7.615043091648519
12.531839299292489 25.831248240493192 5.580781496773183
nan nan nan
23.530386021094809 48.566734828069237 6.626279939624679
17.524979365245169 36.203772059734966 3.519000269179446
15.696419433784410 32.440699334488187 1.888699988895357
17.801722111615724 36.824630876531891 0.713943042536394
11.942886087446658 24.584482169589304 -0.477078982369582
11.748833467928383 24.206518818474429 -1.410140005009878
8.579523388746047 17.692401164633253 -1.720280050353277
5.562188276918775 11.475256290973970 -1.565777324069335
4.051803694425096 8.366647080095486 -1.472361184958653
3.130470934733320 6.469925628417855 -1.397103464147061
2.594586129293343 5.364769463232444 -1.375800648367078
2.176050211949450 4.503381752216343 -1.340165015540852
12.976970799803919 26.465905502071376 7.898121980348523
15.238989466781215 31.106647703993005 7.997009981924402
12.596901020659294 25.736209204703886 5.569714575041343
12.782149171018640 26.126229087933254 4.606682126504719
20.099387479519738 41.118740528191019 5.619639163098161
nan nan nan
15.833689402721406 32.449498800499207 1.892258833919877
18.037101876217548 36.981539267765967 0.718201429707091
11.451311307601575 23.364711951348102 -0.454181425123866
10.316331652010525 21.067559106004037 -1.229371612146751
8.144767789670961 16.647597074162874 -1.621445438077432
5.592617683561130 11.436154673652727 -1.563096198514422
4.044562185751094 8.277908896803220 -1.459220689895274
3.171983617090417 6.497772566457492 -1.405499059943629
2.596205319714004 5.320652645455429 -1.366802606193324
2.196836080374774 4.506177390583132 -1.343270844082083
14.303657403259017 28.928539202649205 8.647144296875219
15.352416546920754 31.076908395975021 8.002408807228653
12.711720056403651 25.754151397121898 5.582689586726948
12.883385036878819 26.124920473379792 4.613565242966489
nan nan nan
nan nan nan
23.647272668623931 48.057603738952110 2.806986677134049
18.134926112237377 36.871279615729634 0.717224094946603
12.333223256771381 24.954380969834926 -0.485874995213973
10.938826780747915 22.152498357601733 -1.294791557450431
8.130288098688144 16.479342009649198 -1.607674830723303
5.573441637120586 11.301821618774969 -1.547253183871752
4.027463999947462 8.174080845852849 -1.443264374461170
3.170101982109036 6.439660494999562 -1.395195374193296
2.588023559708724 5.259558361864639 -1.353305542932692
2.213471661542751 4.502334978494156 -1.344306120262493
12.862775694475102 25.787464720747266 7.721607391588604
13.353814361113885 26.795318650042272 6.911846095769596
12.721909121803034 25.549695067932927 5.547962349568417
nan nan nan
nan nan nan
12.948354944166317 26.061445950807524 2.545993557144590
23.792679652743896 47.930042358857342 2.804369879321902
nan nan nan
11.436092703625349 22.937253438357434 -0.447374986613326
10.859350225200679 21.799539859691404 -1.276369300852914
8.161129561725613 16.397351272099367 -1.602445486158443
5.650878708817151 11.358721704810813 -1.557733947404595
4.086746020041215 8.221884353413587 -1.454214787013986
3.133181036180160 6.308987221715790 -1.369245350822086
2.613298904756417 5.264456506347551 -1.356904759802194
2.227457528008342 4.491119726789520 -1.343270844082083
14.481319287053974 28.805422016362296 8.638862087431937
24.119325507561744 47.997672384486542 12.401551625977278
12.819778556601424 25.533685176504974 5.553686619429714
nan nan nan
20.479000954945121 40.842192428759880 5.609889615625749
12.850867815389424 25.651406739604187 2.510085391132555
23.890699995438869 47.729430521613651 2.797252189272862
nan nan nan
10.445941776259739 20.778477102739505 -0.405942973731215
10.908272122284872 21.717005238025916 -1.273647831128281
8.264611827942662 16.468137665576624 -1.612032617860685
5.693855009347682 11.350566408008060 -1.559196379525457
4.148507565766519 8.277160328954478 -1.466416675287124
3.146173579584673 6.282763460137046 -1.365810788905308
2.623764007071803 5.241820537052195 -1.353305542932692
2.234561474316170 4.468158083577037 -1.338612101270237
14.572814580486767 28.724586718913987 8.630579877988657
13.231924055938038 26.104126773386973 6.756629868272330
15.601828123828129 30.806167499013210 6.712278839356093
13.160635934443690 26.008497514020220 4.616693932267293
20.800634278562125 41.124737821861885 5.658637352987808
nan nan nan
24.199394129027787 47.927441029603145 2.813790351445632
nan nan nan
11.598286442710032 22.871364028779297 -0.447619320303447
10.987622946804247 21.685922449473736 -1.274066518778225
8.382337644674534 16.558287248879143 -1.623711487388872
5.761225570827698 11.385530432038031 -1.566752278816576
4.165788483904287 8.239711439154608 -1.462349379196078
3.216770650720364 6.368123503458682 -1.386799778396728
2.659612181639708 5.267421379126584 -1.362303585106446
2.239703136477099 4.439633196197954 -1.332400444187777
16.806672562151252 32.828987735327871 9.882228780104448
16.246504878959133 31.748454309934374 8.233658491094149
15.745024743661046 30.794978567164662 6.722964143097180
13.253214974493501 25.943699628856319 4.614190980826650
24.533302809613030 48.045620685845286 6.623842552756576
nan nan nan
nan nan nan
nan nan nan
10.763823587375295 21.025305944911306 -0.412295649674386
11.458269858149885 22.401062747652620 -1.318656753497213
8.107658079099082 15.864230572538647 -1.558693303299119
5.803997226915055 11.361557251700265 -1.566508540129766
4.187517579066607 8.204301341060965 -1.458907820965193
3.266172179238340 6.404695991284187 -1.397485082137814
2.689553110089243 5.276268439584092 -1.367252508302012
2.256733551804099 4.431000646861819 -1.332400444187777
14.719145153366608 28.493413174041926 8.593309935493894
15.146144873183850 29.345118099443948 7.624041133822273
21.154261262135062 41.020757033081395 8.971457344614384
13.268566763796418 25.740437053430977 4.586658514979569
13.110290708359425 25.455202370756478 3.515686818551694
13.634559455578863 26.495850052705350 2.607002577067951
24.496278379664332 47.623705421961432 2.806672661396592
24.604576034193396 47.875327117579033 0.939567752957595
14.072147568127081 27.252614879359363 -0.535370019870109
14.739625614151299 28.569734908394391 -1.684799103372848
8.132860098261279 15.777391571398129 -1.552941024277773
5.859987242577542 11.372991505655820 -1.570895836492351
4.252297100810426 8.259886256050715 -1.471422578168412
3.297488931408247 6.410714275354207 -1.401301262045345
2.689241919384878 5.230453198810862 -1.357804564019569
2.268655899744724 4.416222683183575 -1.330329891826957
13.462565856826972 25.850331772608094 7.809605866923460
15.266482736757551 29.326640479025105 7.633039175996028
13.870572555274245 26.667845817938474 5.842953056420555
13.381179293038183 25.748879876991296 4.596044582881983
14.498474963881499 27.910752431230897 3.861795753822313
13.726964165660814 26.448095136660122 2.607002577067951
16.415824730972670 31.642297670135420 1.868184294048123
nan nan nan
14.139481230365526 27.150120176545734 -0.534322875483872
14.037190320979224 26.976686270003214 -1.593734539510125
7.772469900988178 14.949882368522626 -1.474152232833890
5.740373852544886 11.045976856098182 -1.528485304987360
4.283834454203232 8.250252051301734 -1.472361184958653
3.310805434770739 6.381737915199495 -1.397485082137814
2.723631235742618 5.252173495538909 -1.365902801975948
2.285835048985567 4.411707256634995 -1.331365168007367
15.061482852948570 28.663582317456694 8.676132029926700
15.363323669121755 29.262819428991058 7.630339763343901
13.975432157371278 26.641867442189174 5.847914090300345
13.595632990857411 25.928842560542421 4.637030412722523
14.562649413364625 27.796671131550418 3.853021161097143
13.732346511908087 26.234091127674599 2.590617297431391
15.757646759139421 30.115989297832538 1.781306606684836
nan nan nan
11.181464233474660 21.288522353793915 -0.419730374816668
13.546567165233951 25.813353830549612 -1.527791234644016
7.749664347341909 14.779733087411387 -1.460033002508770
5.851697177012961 11.164772232072908 -1.547740661245373
4.319021952321083 8.247498040919654 -1.474551267469216
3.322139583954550 6.349267862490472 -1.392905666248777
2.747367019154546 5.252995187526541 -1.368602214628075
2.296747253101821 4.395140475489433 -1.328776977556342
17.182680482307273 32.452436199337242 9.839264818617428
15.575136401428752 29.428732887810476 7.687027429038555
16.661872013060133 31.508683434584494 6.928274622122342
13.605044148503243 25.749769809311211 4.612626636176247
13.911255368879763 26.340453663685519 3.657542734275286
13.873197046748221 26.290610888345100 2.600727363590120
15.835996862053497 30.022938250437175 1.778899152697661
nan nan nan
11.249190886837891 21.246024444508102 -0.419625660378045
11.859435117790738 22.417494155824265 -1.329123944745801
8.314445268224368 15.729799472595571 -1.556601565473175
5.875705785556003 11.120733589236476 -1.544328319630029
4.339892465304579 8.220902014415433 -1.472361184958653
3.339512493886800 6.331270349691494 -1.391379194285765
2.767498072064353 5.249027162760178 -1.369951920954138
2.307707862904103 4.380663246682574 -1.326706425195521
15.175229444806691 28.408744657815326 8.630062239898452
16.760511020716475 31.402837738715650 8.217911917290078
nan nan nan
13.676100161789057 25.656152324123394 4.604804912924235
13.676507229734247 25.678505347060561 3.572234193891683
13.516547464969600 25.399535642795247 2.517232162037863
15.743727533199420 29.597181999680021 1.756918051075624
12.042728648219990 22.658617998156039 0.447898558806444
13.830570143955478 25.902356145962557 -0.512542272250142
10.754946460210284 20.159157921137201 -1.197446678838555
8.142496591782864 15.275197635735111 -1.514418185983308
5.980765217258614 11.224542012736599 -1.561633766393560
4.355566180422137 8.181291522312726 -1.467981019937526
3.394784212774651 6.381973137127404 -1.405117441952876
2.760187149538666 5.191157021446222 -1.357354661910881
2.313921632427264 4.355520751989920 -1.321530044293471
14.903668060402255 27.690692242732450 8.426112832357665
15.526727900011171 28.860392647977257 7.566003761801555
25.078295154869025 46.653445948586160 10.295671772527605
13.736070739923091 25.574775459062081 4.597921796462465
13.709002548466918 25.535068497110210 3.558584827430306
nan nan nan
16.006954863911922 29.852844662145881 1.775235635760655
12.039420702634452 22.472256825832254 0.445001459337855
13.940082524476624 25.900371201179080 -0.513414892572006
11.466879545994299 21.323045572590658 -1.268832923153930
8.122378420892710 15.116481353329212 -1.501344824571160
5.994472305212724 11.160927029576438 -1.555540299223303
4.394815326545522 8.189430505281672 -1.472048316028572
3.429844992964795 6.396633879505656 -1.410841711814172
2.771862996866367 5.171669815664830 -1.354655249258755
2.330176349802031 4.351229613787706 -1.322565320473881
14.959891218951423 27.552692105292312 8.400748565937617
15.676625686114241 28.896802690399191 7.589848573562006
31.971550597778265 58.982430970870737 13.041031598005333
15.376805828023537 28.379585143753072 5.112278317514745
13.668578170145468 25.247900184902299 3.525192627337296
14.495814421774066 26.798267672263073 2.665571236194377
16.133861892899379 29.838953354914462 1.777747761660316
12.814498946160819 23.719706172899723 0.470586687174913
14.109577595672024 25.997428680517334 -0.516311992040595
10.880490200103349 20.064416189261891 -1.196190615888724
8.177942776724688 15.093292191401110 -1.501867759027645
6.031503936981811 11.136443372074865 -1.555052821849682
4.440297581365146 8.205311409951666 -1.477679956770021
3.415735435366660 6.317270533565851 -1.395958610174802
2.794531450205676 5.170534541673376 -1.356904759802194
2.349022561421713 4.349868596903961 -1.324635872834701
15.078072303019185 27.552077490813680 8.415760070553564
16.108471706475324 29.447123403415244 7.749113920037462
nan nan nan
18.833890927072876 34.486492305377581 6.223588757160544
14.233157655429981 26.072966233584541 3.647305709429254
13.826032819351152 25.348210585322452 2.526122047798125
16.453993178627179 30.178758316033857 1.801403613882127
12.381597232695272 22.728329175944204 0.451772993035521
14.223279466058157 25.990119303504358 -0.517149707549585
11.594381144725583 21.203920092109609 -1.266530141079241
8.235354709430476 15.073396145415979 -1.502739316455122
6.052262815881506 11.082219592234809 -1.550421786800286
4.467966209360894 8.188027872435255 -1.477367087839941
3.411451786211857 6.257045195364513 -1.385273306433715
2.830281359280880 5.193259651274070 -1.365452899867261
2.370659239405403 4.353518794922421 -1.328259339466136
14.411620711336008 26.117378607602095 7.992849750856045
17.943905400621251 32.532163281896324 8.577383702131574
15.814598164786270 28.695425889307835 6.368822647678313
18.944627975407638 34.403235943985919 6.220460067859741
14.205385289166948 25.807482360343744 3.617082112264777
nan nan nan
14.812867246508333 26.944505494269535 1.611424092720240
12.600457058638394 22.939109844007298 0.456834190902333
11.721836787658695 21.242832814701512 -0.423500094607122
8.676991517453622 15.737813559557971 -0.941837868548017
7.794740689277109 14.149318257858324 -1.413317524396025
6.129211697414384 11.130580999031112 -1.560171334272698
4.507947529999199 8.193150317464923 -1.481121515000906
3.422868311097534 6.226174344218761 -1.381075508535431
2.837129799539658 5.162854192675659 -1.360054074563008
2.385841413080753 4.345217126767063 -1.328259339466136
14.334375772428286 25.753790262172352 7.897604342258318
16.446681628793865 29.560994898197027 7.809850704710306
17.669121703465493 31.784297893143425 7.068710042719479
16.581912055116991 29.840821543788703 5.407000849650540
14.278679744143426 25.717062048545259 3.611719861154950
14.333755038840586 25.837504487651383 2.585039329895541
14.915398681946174 26.897019333189448 1.611842780370184
18.067198064834454 32.607508420978775 0.650695521607678
14.008215795129207 25.167796440004508 -0.502768924645263
11.176968157585280 20.097554032330237 -1.205192400362511
8.368167500005686 15.059360596424316 -1.507271415078000
6.203702878429922 11.168779165179533 -1.568702188311058
4.540822406407206 8.181754437091515 -1.482060121791147
3.472324309949435 6.261661259437913 -1.391760812276518
2.858867853544145 5.157534133803948 -1.361403780889071
2.395199471854359 4.324613658400951 -1.324635872834701
14.308566894449861 25.487142149292016 7.831864304802278
16.486845307037985 29.391231384570194 7.780157165536915
17.785721275473701 31.732703087465964 7.070999750663997
16.755491788032469 29.906838532630360 5.429527412616332
14.490538703852406 25.885314928562522 3.642430935693048
14.480269014291235 25.888166889254954 2.595149396054270
16.848429174647375 30.134363101230171 1.809358679231054
13.002246788795063 23.274318957220110 0.465350965243728
13.916895759132430 24.799616569432693 -0.496381343889218
11.944499883125284 21.302268482098587 -1.279928145877434
8.420683496643884 15.030058493919380 -1.507271415078000
6.344497016048456 11.328914593292506 -1.594294750426139
4.595398846770391 8.212397980152268 -1.490507582903320
3.519070816314057 6.294056060568608 -1.401682880036098
2.886360707119698 5.164534384041773 -1.365902801975948
2.415931900958811 4.326346613987013 -1.327741701375931
14.366693468113173 25.403388786503740 7.819958628727562
17.946018583230977 31.745330778463295 8.419018159873492
15.386191443974564 27.239354732741603 6.081082682650483
15.327814439217240 27.147068798757129 4.937697454529848
14.673837293769317 26.010013179593045 3.666804804374078
15.268510451098559 27.086186019439541 2.720305042639906
16.957089843165068 30.093986364898001 1.810300726443427
13.116635612791329 23.297289165351277 0.466677348132961
11.881627650551494 21.009260571567928 -0.421301091396024
12.017040250344218 21.266019647058201 -1.280137489702406
8.480274525236018 15.019401290500371 -1.509014529932954
6.330318257145344 11.216188961146521 -1.581376600025194
4.707995076999850 8.348529976309306 -1.518040048750400
3.500408782853167 6.212224807266240 -1.386036542415221
2.889125837415553 5.129465426823647 -1.359154270345632
2.430265299720262 4.318311307375017 -1.327741701375931
14.621773913660828 25.645097661978348 7.910027656423239
15.502553397898602 27.200927156914613 7.228127278177070
18.605591055281991 32.672051815488651 7.308366140912419
15.338441113002659 26.945760754950857 4.910790726542928
14.713505746969860 25.868906735834891 3.654130392659942
18.190239858316513 32.007604332498410 3.220927628982456
17.121225943235956 30.138808130406282 1.816581041192580
nan nan nan
11.605257746149402 20.354436476026596 -0.408979692451302
11.357620405429129 19.936275940785698 -1.202470930637877
8.461684567006676 14.865039168363518 -1.496464102977291
6.363541146831493 11.183671637464938 -1.579914167904332
4.784947918234565 8.416189870844669 -1.533370626324343
3.523041902006724 6.201675293112447 -1.386418160405975
2.911824754575790 5.127822183346512 -1.361403780889071
2.434837442683958 4.291319208962228 -1.322047682383676
14.532698854609494 25.273137904139052 7.811676419284281
15.605059036711248 27.148993332926654 7.229476984503133
15.592449786347956 27.148986398807182 6.085662098539521
15.296723455898769 26.655619173720517 4.867614814191824
14.875387627040967 25.931894850035501 3.670704623363042
18.301486797808984 31.930347295962751 3.219881760069483
17.255110694900214 30.129121703140722 1.819616526654671
15.386236354014324 26.876759291786012 0.540570836988419
11.371764031652670 19.776103768511543 -0.398194105273061
11.426634203718244 19.887587213625082 -1.202052242987934
8.243317524142606 14.358756267230673 -1.448528444466079
6.545778623884478 11.406480786345183 -1.614768800118204
4.831484387351865 8.426014020233080 -1.538376529205630
3.558436301797832 6.210866205591300 -1.391379194285765
2.927694184945703 5.112042221431635 -1.360054074563008
2.452468548996214 4.285719717963567 -1.323082958564086
14.615540561960339 25.202991394523593 7.806500038382230
16.505772996540280 28.485409927920720 7.600646224170512
15.687122439602856 27.094393190977875 6.085662098539521
17.765110763151878 30.695794823092825 5.617248770664610
14.844579182828378 25.670161535150761 3.640968503572186
nan nan nan
17.378409655317732 30.088159725463399 1.820977261516988
13.176007806547984 22.830716332271706 0.460115243312542
11.440726235581831 19.736288421509133 -0.398194105273061
12.374901543822725 21.365010422538738 -1.293954182150543
7.925126328891921 13.693584857536617 -1.384207506318307
6.638239231405136 11.474630760845571 -1.627686950519150
4.867787317635861 8.421069121265349 -1.540566611716194
3.576166895839309 6.191606878941450 -1.389852722322752
2.964033737076686 5.133857027965072 -1.368602214628075
2.478032320775255 4.295539961530965 -1.328776977556342
15.015217319015800 25.705763230053584 7.976802970059690
16.489108804267616 28.240353127872968 7.549807285888797
17.945501142160676 30.759321396464529 6.922168734270292
nan nan nan
14.851666627350525 25.487012902770552 3.621956886000983
15.811621365941837 27.156182373132882 2.749240749232129
17.396517133089365 29.902212395646085 1.813022196168060
18.730438846223155 32.207971157654875 0.650346473478933
11.515188623409596 19.713781426786305 -0.398508248588932
11.918135302355678 20.419981463940324 -1.239106100007938
7.979525743012602 13.682718769897573 -1.385776309687765
6.684251887276965 11.466274216672094 -1.629636860013632
nan nan nan
3.614455351097585 6.210256081627533 -1.396721846156308
2.979082000850344 5.120630874098061 -1.367702410410699
2.492263219546552 4.287298891891222 -1.328776977556342
15.179350770263811 25.779711754462802 8.016143464915272
17.929933541240658 30.463298068716270 8.160774349486735
18.530479820190642 31.508792880859740 7.105345369831776
15.855322867286734 26.970790240752912 4.955218114614353
15.951995026408074 27.156928538447445 3.867158004932139
15.768151080593851 26.865418737798269 2.725360075719271
18.904206956472017 32.234329275039258 1.958411482610958
15.550933358715815 26.527135299090467 0.536731307572217
11.599151728824545 19.699313408789404 -0.399031820782050
13.097327864069443 22.261496341711009 -1.353617172267499
8.142346304900176 13.850586083625590 -1.405647819034231
6.526109326245590 11.105712861679022 -1.581620338712004
4.973004201404773 8.469505453983748 -1.555584320360056
3.671876197678384 6.258561457128512 -1.410460093823419
2.993980683879381 5.105157779402880 -1.366352704084636
2.507213501770609 4.278573150064798 -1.328776977556342
14.889635029770169 25.086976401720083 7.816852800186332
19.193879328093004 32.364767489641601 8.687159816651379
18.602837589327855 31.393122900421172 7.093133594127677
15.919846948090054 26.886851001610289 4.948960736012744
14.993462019182052 25.332373875865166 3.614400986709864
15.956545775386221 26.981045411484544 2.742442601297812
17.571307532132305 29.723297111544735 1.809568023056026
19.044836430064922 32.241576890863634 0.653627525889142
15.186592592448315 25.597486693803965 -0.519523234825056
12.896086064391149 21.754065650818674 -1.325355755896310
8.199401197060762 13.842365408038177 -1.407565245374679
6.831930710322291 11.538371170320744 -1.646454829403542
4.994021833354578 8.441067010147105 -1.553394237849492
3.648650501556353 6.171989347726454 -1.393668902230283
2.990074054079937 5.059969429151140 -1.356904759802194
2.522370207508711 4.271898917470493 -1.329294615646547
14.982073187629172 25.043138173848405 7.819440990637356
16.849024651454521 28.186150074668532 7.581300433496938
19.080774140458558 31.944880885171344 7.232805778743307
19.110954563804487 32.008097020202690 5.904462448478474
15.095018777911140 25.302044469936288 3.617569589638398
15.988398471762761 26.820787956615902 2.731809600682598
16.258279820393174 27.295176398566579 1.665016111913015
13.939810220632092 23.412111978755760 0.475612980228850
12.114764626266853 20.258341109949722 -0.412016411171389
12.463802154647370 20.858528573915809 -1.273438487303309
8.302824813893078 13.906036001371280 -1.416978065591426
6.854870654405472 11.485475088046059 -1.642311271727767
5.024468004231282 8.425279787686506 -1.553707106779573
3.685247176836361 6.184513561754319 -1.399393172091580
3.051597608269806 5.123167760385732 -1.376700452584454
2.534302453930842 4.258087956633524 -1.327741701375931
15.798627594201534 26.200021998521176 8.197834434577242
18.057619815929968 29.969926693121426 8.077992361488192
15.965962467352846 26.519375184165572 6.016970860203964
19.813704612626591 32.936466300227949 6.087803641505625
15.168925543070383 25.225382083436305 3.614157248023054
18.526227629018315 30.832820528330469 3.147019559132441
16.366823584017741 27.260518593272792 1.666376846775331
15.820178636618488 26.360453027310093 0.536626593133593
14.749667535146269 24.470111605749054 -0.498719966351814
8.375551964725561 13.906252193535705 -0.850773304685295
8.252689905600809 13.713087967559462 -1.400244162983876
6.869338459284212 11.418951634359777 -1.636217804557510
5.057917867114094 8.414461994461554 -1.554958582499895
3.757355557253400 6.255762665294503 -1.418474071629234
3.061437471883008 5.099118512275298 -1.373101235714952
2.555113440025924 4.259155334184500 -1.330847529917162
23.065915221278409 37.951685945136234 11.899982055723699
15.940791865384888 26.248948069466337 7.090007330809938
19.280918039079715 31.773969551801766 7.224410182946739
20.078084347534670 33.113715969224813 6.133482505297372
14.602490434454610 24.092593953829020 3.459139443211706
16.394059390218974 27.069809541999188 2.768763635607605
20.652835804524564 34.128765436870033 2.090612108080634
14.026326529484885 23.187609249006048 0.473030024076132
15.045765850455810 24.765407620800381 -0.505805643365351
8.371185264772887 13.789859058772533 -0.845435037148515
8.123812759832880 13.392899049464010 -1.370436898964177
6.908126968259534 11.393206161840652 -1.635974065870700
5.105683686722307 8.427166086310468 -1.560590223241343
3.779169352958456 6.242608934554138 -1.418474071629234
3.081235902025671 5.091735505535705 -1.374001039932327
2.568965502523592 4.248557240494163 -1.330329891826957
19.468105731902078 31.793967432968660 9.989379864776891
19.241022967945685 31.435429920475524 8.508998581611039
19.455221281831761 31.810313342146905 7.248070498373432
nan nan nan
25.368155918968444 41.527108047125253 5.975010168467571
16.459385267144498 26.964801721231506 2.763882914013736
22.203916198875120 36.404423065560870 2.234745331573702
14.113426737641356 23.148751286870713 0.473239452953380
8.494914715904144 13.873308761659088 -0.283950652734603
8.383829076301708 13.702629327851385 -0.841876192123995
8.402263965047092 13.743533396017853 -1.409308360229633
6.883675959790210 11.264005095483881 -1.620862267288462
5.108302282362393 8.365459061259196 -1.552455631059251
3.792756445093662 6.215971812955064 -1.415421127703209
3.087828555159175 5.062648231469592 -1.369052116736762
2.581769360050154 4.236264722172036 -1.329294615646547
19.579431452467993 31.714180614540915 9.986791674325865
17.990883582226260 29.163867474373866 7.911078679165044
19.728909349636876 32.006266952335686 7.308366140912419
nan nan nan
14.597566666886744 23.709457744184434 3.418678821201197
nan nan nan
19.118769002886268 31.101436092321986 1.913297888329540
nan nan nan
16.857638429190615 27.316165825429543 -0.560292056262550
8.441043949533166 13.688581024251249 -0.842818239336367
8.380160375869776 13.600472046271916 -1.397629490701446
6.926075873981508 11.244978593248264 -1.621593483348893
5.125047704276986 8.327389183287234 -1.548701203898286
3.831914366981938 6.231124466897185 -1.421908633546012
3.130995006328191 5.093342624726245 -1.380299669453956
2.592496498160036 4.220642391018608 -1.327224063285726
30.887275410946213 49.622483095733237 15.661658057243734
18.545416990544783 29.806052730521177 8.104536585900767
19.561414768738580 31.463436323222410 7.201513103501553
nan nan nan
19.541376504883843 31.467939390283984 4.548163895880104
nan nan nan
19.251885899503794 31.038016230181608 1.914135263629428
18.384886813122570 29.663345705297893 0.609158794286944
25.804997443055893 41.457462089701778 -0.852375530396927
8.523077389894869 13.703556485285318 -0.845749052885972
8.431268861193152 13.566502143601983 -1.397455179215951
7.021578717938075 11.302611638668903 -1.633780417689407
5.183030101677020 8.349606897475198 -1.556522927150297
3.840289268681600 6.191339449659004 -1.416184363684716
3.155663408661487 5.089564049712264 -1.382549179997394
2.613770586740898 4.218867939352892 -1.329812253736752
15.872311566175611 25.292825245514283 8.001131960299327
24.563841761350709 39.173305392033335 10.674827332833770
19.792041839912905 31.587947330337695 7.245780790428913
16.608934800135955 26.518018336872824 4.955843852474514
nan nan nan
nan nan nan
19.386578547191686 31.012965188264833 1.916752061441575
18.568832170449546 29.727887487015426 0.611811560065411
25.856041873386218 41.218062515303700 -0.849303906863965
12.342886716631273 19.691513379034454 -1.217962373685789
8.148610233135660 13.010165804284583 -1.343069995741412
7.036761048510313 11.239334587889269 -1.628174427892770
5.215287093479715 8.336487875771159 -1.557461533940538
3.863958993896442 6.181226123778917 -1.416947599666222
3.140364479292504 5.025633709985813 -1.368152312519387
2.614157111542772 4.186777229474978 -1.322565320473881
15.975711825768593 25.271077183983557 8.010967084013222
24.882612077075443 39.375613966094278 10.753560201854123
23.227075906016694 36.784229159246252 8.456273057097713
nan nan nan
19.845304654296147 31.465071714210666 4.567662990824928
15.143941852815068 24.029565560124624 2.484984537221230
19.064622768047904 30.262392455693192 1.874464608797276
14.820382432990726 23.543479719467221 0.485595756710976
24.924809056325852 39.427149182954146 -0.814189665112150
12.479813374394618 19.756377771600924 -1.224661376084886
8.208863010386606 13.005230253907643 -1.345510356538347
7.109847547530195 11.268426363369347 -1.635974065870700
5.272799767437668 8.363349307049315 -1.565908995052711
3.867722111677615 6.139461864900840 -1.410460093823419
3.122581211508238 4.958574814664635 -1.352855640824004
2.653448578513097 4.216868504776032 -1.334988634638802
19.337731968618325 30.342471215759591 9.641009430068898
17.851623061943876 28.032230705387700 7.672630561560548
23.317391727554156 36.643299046556130 8.442534809430601
19.711345492627292 30.988334329582152 5.816859148055944
nan nan nan
nan nan nan
19.087715182047589 30.065826214899484 1.866404871535863
nan nan nan
25.653223192468698 40.267494451794022 -0.833387312193162
12.329902125478506 19.368986207258803 -1.203308305937764
8.261695081236857 12.988264520156209 -1.346730536936814
7.225827588232494 11.364149793208414 -1.653523251321041
5.321029173090480 8.374904451345563 -1.571540635794159
3.837568843517782 6.044708695435455 -1.391760812276518
3.133605720801973 4.937772508539234 -1.350156228171878
2.680566852202236 4.227158280495468 -1.341200291721263
16.374812097600593 25.516186006290379 8.123812187677922
17.843470446575687 27.815414149932476 7.629439959126526
nan nan nan
19.759590692151917 30.849739291204742 5.802467177272243
nan nan nan
14.912019666911428 23.308311591886000 2.420837910558953
19.223898308387263 30.059572011715893 1.869963716560383
18.891192118503355 29.562063650555487 0.612370037071404
nan nan nan
12.614000625532766 19.670973354996566 -1.224661376084886
8.196154832165870 12.791363199327696 -1.329125076901787
7.257048674949752 11.330096009261073 -1.652060819200179
5.356226092811292 8.368859759187723 -1.573730718304723
3.927403830008751 6.141110213620395 -1.416947599666222
3.151012372580632 4.928995851965421 -1.350606130280566
2.688330037931722 4.208477731289660 -1.338094463180032
23.927928057455983 36.986945383780331 11.803701370945561
17.982773038480342 27.818422166030171 7.647436043474035
25.611530688398506 39.650067313129576 9.175241351676533
nan nan nan
nan nan nan
nan nan nan
19.314643566135683 29.970460170139571 1.868602981698066
18.946630643454281 29.421965753662946 0.610834225304923
nan nan nan
13.001278967754784 20.120009253685499 -1.255434918355737
8.236432069377418 12.755980176547101 -1.328427830959806
7.329925546862011 11.356398541138111 -1.659616718491298
5.376840974588917 8.336831558728834 -1.571227766864079
3.954133933025945 6.135614832412948 -1.418855689619987
3.189305834258870 4.950731338883897 -1.359604172454320
2.695684441870002 4.187697284813052 -1.334470996548597
16.529551605804031 25.356280962264474 8.110353597332590
18.064397274437695 27.721304202912965 7.638887903408968
16.751539270186424 25.726243730614200 5.967360521406063
19.893654002519582 30.575093924299505 5.777437662865807
nan nan nan
15.705971221663720 24.166602494196191 2.521589949175246
19.564723069778125 30.115523131658822 1.882105658408746
19.047807361203763 29.342261604867122 0.610624796427676
16.879624782575036 25.893292131063589 -0.539523692602182
12.767520477416614 19.600288857346410 -1.225917439034716
8.326605042044555 12.792499307729209 -1.335400290379618
7.313038590302337 11.239606446467889 -1.646454829403542
5.375058838262910 8.267384652512325 -1.561841698961665
3.995847468183194 6.150715061463735 -1.425724813453543
3.236086468232511 4.983136172305717 -1.371751529388889
2.719427782940658 4.190753413850943 -1.338612101270237
16.675421617220067 25.376250348436074 8.136235501842842
18.272292954419406 27.827490438961185 7.685677722712493
16.612911993144088 25.319622294221119 5.886457507366408
19.979582726744507 30.462331683728809 5.769928808543876
nan nan nan
15.758578030477512 24.063294588925721 2.516534916095882
15.327968971427296 23.414671540111737 1.466662837752258
nan nan nan
17.010527903684700 25.896053818856803 -0.540815170678541
13.190950871679759 20.096587386990429 -1.259831138680144
8.361374129658387 12.748361942937599 -1.333831487010161
7.314133141472404 11.155907020038260 -1.637923975365182
5.380069452729912 8.212219948985316 -1.554958582499895
3.963528496711672 6.054599801407019 -1.406643913915888
3.249192910510051 4.965287218738236 -1.369951920954138
2.734039674590903 4.181235307907909 -1.338612101270237
16.835185095517556 25.435190133328963 8.172987806247400
16.586473427211978 25.068933116765670 6.939740026508236
16.642725048152041 25.173042508905763 5.865850135865741
nan nan nan
15.839842757785773 23.985928531157160 3.529336185013071
nan nan nan
15.301833166698351 23.197637169390248 1.456404990328641
15.697566364033213 23.815652573697598 0.497882250842824
16.886699432656346 25.513019806853993 -0.534043636980876
8.289790600262743 12.534011268808355 -0.787551469543819
8.390444091668725 12.695826936975081 -1.331391126213226
7.278624303548974 11.017679848918755 -1.621349744662082
5.406526132381807 8.190092831460872 -1.554332844639734
4.000854143352090 6.065310069326741 -1.412368183777185
3.271868921715812 4.962049676344063 -1.372201431497577
2.746492484653547 4.168439908253951 -1.337576825089827
15.794109423454177 23.682268019992140 7.627397259171286
16.680365071329810 25.020611497738244 6.942439439160363
16.758793551374922 25.157276794468405 5.875772203625321
nan nan nan
22.270868133060400 33.469634279178472 4.936195885282094
nan nan nan
19.807152400095045 29.800875494989246 1.875301984097163
nan nan nan
14.460372125659472 21.682413307846776 -0.454914426194232
8.331276784235810 12.501674108755275 -0.787342125718847
8.381702863946131 12.586860773565519 -1.323024174909451
7.324738669844319 11.003772849061630 -1.623055915469754
5.436175971213900 8.172815397112286 -1.554645713569814
4.008960846816692 6.031686970798366 -1.407788767888148
3.285934525137690 4.945729050817729 -1.370851725171513
2.761026322746476 4.158827464813093 -1.337576825089827
23.383186357561740 34.824104501420628 11.239475852622066
16.829480656193930 25.073258263087219 6.971683076225064
nan nan nan
nan nan nan
15.857150065559585 23.669250957691997 3.498137633101353
nan nan nan
nan nan nan
17.478036621788348 26.137974498878357 0.548843277639692
14.529532705839399 21.638537946362259 -0.454949331007107
8.374961989513183 12.482073088038296 -0.787760813368790
8.389028347101913 12.512475563720562 -1.317969141830087
7.326116987463878 10.931237167155714 -1.615743754865445
5.458527219757648 8.150772896940971 -1.553707106779573
4.019155215383525 6.006009708577974 -1.404735823962123
3.323125955329861 4.967776615808144 -1.379849767345268
2.773004458353824 4.148526847497762 -1.337059186999622
23.317929017541974 34.453388517810815 11.147336272565568
16.930000465349771 25.033730612567691 6.977081901529317
27.056033476037360 40.036809567917921 9.392763606405794
nan nan nan
nan nan nan
nan nan nan
20.051257909270912 29.738406933058723 1.879698204421571
17.593750337536818 26.113290497510452 0.549611183522932
13.771303101652261 20.355431386073175 -0.428980150228429
8.653384684450682 12.800235760876488 -0.809741914990827
8.461651283936323 12.526041833638395 -1.322501240452965
7.220921964520850 10.693375278770592 -1.584301464266917
5.469267032596496 8.105469925130629 -1.548701203898286
4.040095615603655 5.991943648070931 -1.404735823962123
3.304504284017514 4.902819826693616 -1.365002997758573
2.795022740888943 4.150038301048130 -1.340682653631057
20.396922584874158 29.900770323029615 9.698467258081658
17.103947874253219 25.082852715503428 7.009024951246146
27.174188101026800 39.880709527308213 9.380551830701695
nan nan nan
nan nan nan
nan nan nan
15.446810721056808 22.720760684119284 1.439866828155871
17.693888232229433 26.045543011661696 0.549611183522932
16.115517206499792 23.624464750664007 -0.499173728919183
8.694595629674483 12.755362595080792 -0.809009211603426
8.499590810710759 12.478638930073339 -1.320932437083507
6.874253000025358 10.096192806979884 -1.499724139943745
5.508127680312645 8.095842246185059 -1.550891286408849
4.053139024245143 5.961774469328009 -1.401301262045345
3.282777240451151 4.830460021114654 -1.348356619737127
2.781633895411958 4.096124867876982 -1.326706425195521
22.470754570786958 32.695150781577631 10.630215820450733
17.185881675251409 25.014964980343731 7.006775440702707
nan nan nan
nan nan nan
nan nan nan
15.156507857767188 22.118954630549617 2.345883971795967
15.540699619258644 22.688123819645615 1.441227563018187
17.816321616345256 26.029825976108320 0.550588518283420
26.737098447788892 38.902719642036850 -0.823963012717029
13.874640110155019 20.202830689280312 -1.284429038114328
8.503640175391915 12.391396926972776 -1.314831535091171
7.281146742526918 10.613965175814002 -1.580401645277953
5.515133243817044 8.045608787406522 -1.544946776737320
4.072815350976833 5.945970338620049 -1.400919644054592
3.300719666629147 4.820579493064478 -1.348806521845815
2.814459984181995 4.113494620506969 -1.335506272729007
29.614665312637619 42.784961221418271 13.942581959672793
17.311983717321954 25.020335759310978 7.024321622941528
nan nan nan
nan nan nan
nan nan nan
16.275420135796107 23.583757296275895 2.506947784393640
20.327557339914229 29.477477478382749 1.876558047046994
17.861683834005028 25.911330745992647 0.549331945019936
16.272534966201807 23.509290756901301 -0.499069014480559
8.591481364461567 12.421566157403701 -0.791529002218282
8.630777314275372 12.487695246469515 -1.328079207988815
7.492328469744202 10.844543098162175 -1.618424880420359
5.548516756781262 8.037029385456723 -1.546823990317803
4.085821575175244 5.922735546827093 -1.398629936110073
3.362045432202622 4.875382558358611 -1.367252508302012
2.833566134614553 4.112092675070989 -1.338094463180032
20.508859148244646 29.398760146900852 9.604774763754545
17.392529083280557 24.950161314572913 7.021622210289403
nan nan nan
nan nan nan
32.437229825640763 46.618952349210879 6.973363829642539
nan nan nan
16.466458718815900 23.692129151667459 1.512090447771133
17.790045872459224 25.615596561716330 0.544375461591747
14.053110183179243 20.152155566549585 -0.428840530976930
14.070069084198400 20.191493066713964 -1.289767305651108
8.575264471110954 12.315242254764843 -1.312914108750723
7.538075741430292 10.829728782075151 -1.620131051228031
5.548338910893638 7.977070348933247 -1.539002267065791
4.103109520458520 5.903600910319474 -1.397485082137814
3.320112874810223 4.778795900579172 -1.343407696541562
2.847902753675756 4.102176631157293 -1.338094463180032
20.623574098279402 29.344377744103358 9.610468782746800
23.031374431465377 32.782491862459736 9.249537452511042
34.489835051126924 49.128731437471650 11.667970067275714
nan nan nan
nan nan nan
nan nan nan
15.417225592983181 22.018080000112445 1.408674598235076
18.108563914721167 25.871318655616257 0.551216804915162
18.848101088616641 26.818135181988445 -0.572159692639903
nan nan nan
8.722204643344405 12.428877248470705 -1.328427830959806
nan nan nan
5.562798672193990 7.935653064966711 -1.534934970974745
4.122467025456032 5.885306594264857 -1.396721846156308
3.348783251004345 4.782558124933234 -1.347906717628439
2.860703829572032 4.088545258393482 -1.337059186999622
19.895326052384327 28.099176636416225 9.225346043634248
17.016720032749795 24.042472048099089 6.800270372815040
nan nan nan
23.436692793834432 33.149876155615253 6.430082251013649
nan nan nan
nan nan nan
20.469841457994892 29.017850054406733 1.861066603999083
18.125007500856999 25.703358863634893 0.548982896891190
18.644625439533122 26.332748815768955 -0.563189155731139
13.958104074553596 19.728335764723489 -1.266530141079241
8.742532744323787 12.365818006412020 -1.324941601249899
7.491643857536983 10.600430872761409 -1.593807273052519
5.576791188605730 7.896824056602480 -1.531180543813780
4.175812397770999 5.917398550345414 -1.407788767888148
3.429486149188559 4.861606527096493 -1.373551137823640
2.854923536345510 4.050112785595951 -1.327741701375931
16.537604775929797 23.176309532069268 7.628950173441901
28.124533911904408 39.443702335203632 11.184116519868281
nan nan nan
nan nan nan
nan nan nan
nan nan nan
20.398999121969386 28.693573055164883 1.845051801388742
18.124286635271357 25.512777850004749 0.546260321486974
15.304998532051975 21.456816588973091 -0.460045433686793
8.791726164360716 12.334650629391231 -0.793831784292972
8.834190098829234 12.403384918623061 -1.332262683640703
6.380716418907159 8.961967076238770 -1.350799802302655
5.605467414407733 7.878918897458919 -1.531493412743860
4.180516754803538 5.880384728440313 -1.402446116017604
3.446435429289405 4.849605767845686 -1.373551137823640
2.846672964184232 4.008620637685283 -1.317388939571831
16.528197333015243 22.992951070467338 7.587539126225498
16.816935355971562 23.411863557203709 6.654951991708902
23.948173431892542 33.364260497783704 7.983066748563882
23.941628824992709 33.367434765290163 6.504545056372799
23.948200575739104 33.401202758017241 5.046365771720347
23.961868758428778 33.444913121751888 3.599532175478283
20.484737075458593 28.612777986416098 1.844214426088855
18.159698328312029 25.374553629224025 0.544654700094744
19.001875652897255 26.443908155009819 -0.568389972849449
14.507873099127215 20.204721005238365 -1.303583998099245
8.785672764849505 12.244587241461069 -1.318492076286573
7.609430744298458 10.609168130856153 -1.603069343151310
5.558136879864010 7.754941595569344 -1.511156932288630
4.212448999507786 5.881717417694020 -1.406262295925135
3.481493217938818 4.862898270998026 -1.380749571562643
2.858400264891935 3.995517107777379 -1.316353663391421
16.977733763773553 23.445203325345563 7.756289143632341
27.400747364331323 37.866560132171770 10.790902076875204
nan nan nan
nan nan nan
24.113464016722912 33.384991916607767 5.056602796566379
nan nan nan
15.870350502055569 22.004783657514519 1.421863259208298
18.215416700600858 25.265591490125356 0.543677365334256
9.415705773134345 13.007287370917727 -0.280285647382773
11.106393735219172 15.354162066041752 -0.993127105666102
8.744325661449684 12.097584103243731 -1.305941649330910
7.738262657872581 10.709654411205864 -1.622324699409323
5.348120967364459 7.407174812719671 -1.447018801622135
4.237549155476731 5.873345889688979 -1.407788767888148
3.513265786662004 4.871263149281532 -1.386598298975584
2.902826428047361 4.027830819130997 -1.330329891826957
16.826074325794679 23.065849967541659 7.650173335140308
16.937496969725931 23.235623404157042 6.638305613687456
nan nan nan
nan nan nan
nan nan nan
24.194772468735373 33.276814049782793 3.599532175478283
16.029242003489660 22.062358892460299 1.429190293082310
16.517333290440014 22.742505028620016 0.490622049764914
18.625194894577572 25.541517479923982 -0.551775281921156
11.166979385132038 15.324985029012002 -0.993755137141017
8.968282421419405 12.316637700110638 -1.332959929582684
7.811813663428247 10.732331178353361 -1.629880598700442
5.370458448348486 7.383668744240720 -1.446080194831894
4.267259135279089 5.871223138033712 -1.410841711814172
3.525666501415677 4.852663630159393 -1.384798690540833
2.925948242676714 4.030179901759676 -1.334470996548597
nan nan nan
17.141835867677827 23.361409056937568 6.689594454077858
nan nan nan
nan nan nan
24.184210080244306 33.019342679290531 5.025404244654662
16.081007272075087 21.971910124322456 2.382140760778993
21.250834229088930 29.056859160804752 1.886606550645639
18.609178382875204 25.454171736127556 0.550379089406173
19.209422620592612 26.169601073209517 -0.566644732205721
14.645505182227691 19.966639942793279 -1.297722371000035
8.846745906725058 12.069856086867279 -1.309253567555321
7.718781172977314 10.534798846064357 -1.603556820524930
5.387793653246222 7.358791307586740 -1.444515850181492
4.265976083619778 5.830852194847216 -1.404354205971370
3.542044558266426 4.843136451083918 -1.385248592649521
2.939734840378246 4.022527615026592 -1.334988634638802
32.505231660236667 43.944337699955888 14.646052124261443
32.399778605167583 43.833769192740263 12.584211882104496
nan nan nan
nan nan nan
nan nan nan
nan nan nan
21.780975438896462 29.564597092021220 1.924497782965530
18.610166406956189 25.269906404689987 0.547796133253455
19.122319065271299 25.861205646472559 -0.561409010274536
9.397827154876563 12.718995410456214 -0.828792203063259
8.917226248179970 12.077369712495404 -1.313437043207209
7.888714988460824 10.688271465958932 -1.631099292134494
5.432207857291886 7.365375786921811 -1.449521753062779
4.280479784280095 5.808023562971881 -1.402446116017604
3.561240423241299 4.833880767016856 -1.386148396866896
2.956048795075303 4.015352989570554 -1.336023910819212
17.165487981847903 23.046053389105861 7.699866591799992
32.312847266285139 43.398415047633286 12.491532047714824
nan nan nan
nan nan nan
nan nan nan
nan nan nan
16.834174356061769 22.675502059536875 1.480060842550452
18.588650142108339 25.057037518257591 0.544584890468995
nan nan nan
nan nan nan
8.895122269623998 11.959839657549482 -1.304024222990462
6.788956095207167 9.131344608451819 -1.397110152796611
5.448460357974497 7.333683679797790 -1.447018801622135
4.301897757786331 5.794622854875882 -1.402827734008357
3.561833343420339 4.799511834890742 -1.379849767345268
2.967745513450099 4.001906534738415 -1.334988634638802
33.043157021939074 44.025354234224395 14.749579742302451
21.082690182253405 28.110148958596305 8.112184921748460
nan nan nan
nan nan nan
nan nan nan
nan nan nan
23.671336940781067 31.653645488626051 2.071457148095717
nan nan nan
9.377575801399010 12.498842570220070 -0.272746207801867
9.450450371900875 12.605136352602010 -0.825652045688682
8.954734735005639 11.952635049353910 -1.306638895272891
8.047626747715032 10.745749929448392 -1.648404738898025
5.450355031470445 7.282989534034818 -1.440761423020526
4.330328886757941 5.790576838710225 -1.405499059943629
3.575064676595157 4.782367001802728 -1.378500061019205
2.971291393039724 3.977593473013517 -1.330329891826957
17.313650634584857 22.901056492935599 7.692619658537121
21.061032402983351 27.867890657625153 8.064495298227561
nan nan nan
nan nan nan
nan nan nan
nan nan nan
nan nan nan
nan nan nan
19.015480262874195 25.152095126056331 -0.550379089406173
10.905183229175812 14.434940479565681 -0.948118183297170
8.964870921473036 11.875209935769012 -1.301758173679022
6.839775073242211 9.063516112890825 -1.394185288554887
5.468686379690335 7.251923729525346 -1.438571340509963
4.352704841829682 5.776234420392165 -1.405880677934382
3.593741424315669 4.770788150227085 -1.378949963127893
2.991659091094378 3.974393698239866 -1.332918082277982
29.512835047836642 38.741133683590370 13.049656254069095
32.173419499602794 42.264246729969912 12.262981776501457
32.336374434354873 42.509090542408245 10.381917438437803
nan nan nan
