# This PCD file was generated using the MATLABÂ® pcwrite function
# from Computer Vision ToolboxÂ®.
# .PCD v.7 - Point Cloud Data file format
VERSION .7
FIELDS x y z
SIZE 8 8 8
TYPE F F F
COUNT 1 1 1
WIDTH 873
HEIGHT 1
VIEWPOINT 0 0 0 1 0 0 0
POINTS 873
DATA ascii
9.026778938357001 8.593081723352677 -0.653152733911939
9.066693920057414 8.637113906100419 -1.095547686338063
8.263152754021670 7.874395942782172 -1.401497449159196
5.999866778236306 5.721588451549566 -1.313110899547698
4.956899317815409 4.730299492321707 -1.331846787728283
4.169537177945621 3.980321507262302 -1.330810437498305
3.430781979991644 3.277381062032365 -1.271319149543582
21.463037843741333 20.282398797428318 7.912615846874264
22.569005467899473 21.334987202423129 7.170089906156353
22.982035626944288 21.740630090816730 6.149392302995286
nan nan nan
16.882710955863892 15.987527282241537 2.854911238608985
24.006676307522383 22.749653656834688 2.893570659222251
22.808144731815997 21.628995009050374 1.647326558702900
23.197780453510958 22.006178114642154 0.558127957864327
12.066189365921003 11.402452274772589 -0.289779756484655
10.937376725040128 10.342963013967008 -0.788912204406135
9.267495635969164 8.769964856931248 -1.116290753112006
8.261829293059876 7.821021989067015 -1.396866414109800
5.981521344138732 5.666339492726078 -1.304976307365606
4.941212661770104 4.684121088714225 -1.323451191931715
4.179885405575844 3.963791077206313 -1.329910633280930
3.448637882027047 3.272635153474317 -1.273907339994607
21.517507067683354 20.185092715464634 7.905368913611394
23.071002743343026 21.657537385745822 7.305510440871360
23.122175805301435 21.720763907861393 6.166565112579175
19.715249223995244 18.533286889726167 4.285678604242165
16.866108936572939 15.860503266592012 2.842724304268470
24.112058446964745 22.690293402071042 2.896708265961167
23.078344916366181 21.732727382369703 1.661352594976009
nan nan nan
11.056018919352168 10.375032671605613 -0.264648291214967
12.630272581731299 11.860615419758565 -0.908028840815076
9.174639444347520 8.621588570772305 -1.101474276844904
8.277508554238510 7.781258001098541 -1.394916504615318
5.962416328845828 5.608881213962851 -1.296528846253433
5.007565966549304 4.713943565502732 -1.336807821608073
4.193696153216857 3.949176405528178 -1.329910633280930
3.398178744073317 3.202281652744812 -1.251131264025585
21.512245276432708 20.046458760022190 7.878969371010936
23.147886550671377 21.578201401044762 7.305960342980048
15.559028877936134 14.514106954667191 4.135975783781985
23.303166387947574 21.753377108652824 5.049078793638492
16.915566234243581 15.796113560284821 2.841749349521229
24.342510085582383 22.747462847012219 2.914836660452680
15.656932177421904 14.636128706556775 1.123234292886060
12.671375279594191 11.853515717093760 0.302869061312618
12.304961512949214 11.466534540828793 -0.293584381087983
12.380917047886918 11.545391927373513 -0.887199130230384
9.300818528899811 8.679225357459398 -1.112978834887595
6.338385325327724 5.916847691269864 -1.064650583987368
5.973297515866775 5.579943542452475 -1.294651632672951
4.965188137742273 4.641466911446442 -1.321161483987196
4.154791436407169 3.885265642889224 -1.313264255259484
3.450242481010076 3.228679809403558 -1.266142768641532
21.560048129372497 19.943864717299977 7.869651885387246
23.265969902100220 21.536982885093156 7.319457406240680
15.619679633674494 14.469046556100487 4.138647109717257
nan nan nan
16.164210837533158 14.989198278584691 2.706718117028326
23.554253671119586 21.857339427110681 2.811295638068462
23.531881932911819 21.844224370301202 1.682705665123130
23.485556459562886 21.816488500898274 0.559524150379309
12.432974846274549 11.505002155414569 -0.295678669860457
10.645018822518910 9.857395511031823 -0.760336772297488
9.198070344397060 8.523472376181859 -1.097116489707521
8.414611285519372 7.800203356134249 -1.408809609763505
5.999979867636896 5.565775932256310 -1.296215977323353
4.939632470760492 4.585372317681253 -1.310094562255357
4.169756230719950 3.872065093603487 -1.313714157368172
3.501116254567165 3.253437993980067 -1.280636635167273
21.134429090136639 19.413690635535744 7.689513829995891
15.464157440776964 14.210062523691811 4.848595025327667
16.646634709181804 15.307365302612119 4.395857635484839
15.914036904168519 14.643962590793057 3.425289046520895
15.120731698037050 13.918844312172792 2.523426624546984
23.651791590682642 21.787060518208325 2.813387375894406
23.635287119687796 21.779483955894111 1.684380415722904
23.522727859534150 21.690950705116272 0.558511910805947
12.525130345079488 11.505350092594444 -0.296865433498193
10.776653295875883 9.906169959962520 -0.767140446609071
9.274705706328715 8.531517062585740 -1.102520145757876
8.500113251006589 7.821732550628924 -1.418315418549106
6.033417372350382 5.555790420777257 -1.299031797694077
4.950630508178650 4.561915291252070 -1.308568090292344
4.173890105965051 3.847510516769072 -1.310564842607358
3.527216930697050 3.253682469373862 -1.285813016069323
nan nan nan
26.266851280727913 23.968122708491556 8.209363777225009
16.789852060222362 15.331241726534014 4.419517950911531
23.341753334851489 21.321421634122999 5.007154357007710
15.454939595752297 14.127145679236984 2.570955668474991
16.177174387774617 14.797698967571325 1.918123586390461
15.860490259206381 14.513104624380210 1.126688465998095
23.787074701180458 21.781567780754720 0.562979726853892
12.662723047137668 11.550502450131336 -0.299169151147914
10.768388098942033 9.829443593556764 -0.764104961146980
8.996979031458149 8.218250814803380 -1.066089045289355
8.514175495078570 7.779962388758312 -1.416121770367814
6.064436319940375 5.545360170284962 -1.301534749134721
4.966524403310981 4.544606573113361 -1.308568090292344
4.138421658518099 3.788180373441933 -1.295268170911975
3.531430221952156 3.234825904805363 -1.283224825618298
34.734364075722119 31.473111842204563 12.559452982644922
26.207577063323541 23.755246244762056 8.166173174790988
20.503623143727651 18.598072003109404 5.380813669618563
23.306234138167866 21.155049551337775 4.985253531902078
15.961697438434067 14.493501583407278 2.647245877446613
20.238458405318209 18.389768985314777 2.392425138423217
15.997206553385427 14.541033946393718 1.132968780747248
nan nan nan
12.563144003472098 11.383574936020437 -0.295923003550579
10.821638602056099 9.812462686718833 -0.765570367921782
9.027133272740388 8.191048258672321 -1.066437668260345
8.347375373548440 7.576905758525766 -1.384192002395665
6.107649616288907 5.547798305583648 -1.306853520946089
4.939437061571976 4.489816503194015 -1.297501168560505
4.205749610532971 3.824254928890426 -1.312364451042109
3.513560723153073 3.197094267280438 -1.272872063814197
22.882048938402427 20.581405278283881 8.246492415056517
26.377244104059397 23.741842536913012 8.193167301312252
15.309612969460542 13.789676515677806 4.005080812953675
16.759186656639962 15.100635639317034 3.572963181518873
16.134557477932848 14.548029755789045 2.667476188451868
20.256671032845759 18.277635271275059 2.387021482372862
23.263772870046321 20.998316484109694 1.642406978816063
nan nan nan
12.662264766917795 11.393153569935025 -0.297319196065562
nan nan nan
9.055670370551619 8.159487780469370 -1.066437668260345
8.326588363060988 7.505191955660419 -1.376392364417736
6.159248248757686 5.555552272970499 -1.313736637407859
4.960908858283410 4.477809117075123 -1.299027640523517
4.197377517669805 3.789961087549391 -1.305615919411792
3.507498611912717 3.169268196516122 -1.266660406731737
34.025494223587224 30.400937667426700 12.226094052552874
34.576224159727211 30.903855109457893 10.706320480441912
15.638614127193877 13.987446996893210 4.078351467178268
23.197243391869403 20.762595429807753 4.930814338068077
16.263623754653651 14.561801555965225 2.680394338852814
20.720997963683409 18.565792597178199 2.434085583456597
16.147411734555774 14.472989779056441 1.136422953859282
nan nan nan
12.794410937026271 11.431489777401705 -0.299483294463785
12.284985695812425 10.984044913977783 -0.863647949921059
9.012826016053364 8.064059372442063 -1.058070716956570
8.323152729997179 7.449602951271403 -1.371517590681530
6.144759954878583 5.503706080592437 -1.306540652016008
4.985280860640607 4.468327192485636 -1.301317348468036
4.217835998724328 3.781791044596881 -1.307865429955231
3.515664254565028 3.154425126404282 -1.265625130551326
26.762737688420156 23.736023231196665 9.585104516326753
31.282106575844335 27.763791892028575 9.656248958764749
15.584591828673911 13.841512972450616 4.051638207825553
15.626704149358327 13.883794716202786 3.310779018111446
16.213474956203815 14.415250822513251 2.663820108149713
15.495482132834818 13.786577660514647 1.814582564006243
22.971174608706292 20.445004542981561 1.611633436545212
nan nan nan
12.846202988991545 11.397376329202000 -0.299762532966782
10.407032140279592 9.239795503141293 -0.729353886201665
9.173480367540542 8.150325048630245 -1.073584439165653
8.335752168029298 7.408635753881443 -1.369323942500237
6.200834984427954 5.515043158704581 -1.314362375268020
4.990582191145335 4.441761351264030 -1.298646022532764
4.244110322419336 3.778707687481325 -1.311914548933421
3.523769046054343 3.139563697441320 -1.264589854370916
27.381983868665213 24.123484126213128 9.778183523973233
21.279358267127439 18.753678277066328 6.548325191949910
15.841898152744077 13.971426686646367 4.105827962512492
16.069584698227271 14.182205368193353 3.394627891373010
15.597015750237521 13.769983075321695 2.554625176458702
16.509568751296733 14.585897675511594 1.927362095121713
15.962216635743973 14.107283464490525 1.116430618574478
12.097157844428628 10.698897765637701 0.281891268775003
12.900913545032500 11.365684261956662 -0.300111581095527
10.256445373618870 9.042272932939811 -0.716583912878387
9.227273329734379 8.140661881806034 -1.076547734419074
8.371980813666243 7.388688224847982 -1.371030113307909
6.252621749823999 5.522132523238788 -1.321245491729790
4.981048211293887 4.402211840031279 -1.292158516689961
4.273334295095087 3.778068368642443 -1.316863472128986
3.543387928592590 3.134924822548417 -1.267695682912146
24.748501311619489 21.650420234424654 8.810717933380012
21.765572414140951 19.047609134734973 6.677447097143289
16.017589246124778 14.027278240758505 4.138647109717257
17.286690333771642 15.149348795012530 3.640542870416253
16.098767687705934 14.113270385186768 2.628721737249031
16.170973080653692 14.186556555035152 1.882041108892931
15.991847929103177 14.034352673596191 1.115069883712161
15.274717446090808 13.414444374053431 0.354842327682848
12.707224241250048 11.116501212417395 -0.294701335099969
10.411173245721727 9.114293195613559 -0.725167009702230
9.308085912186321 8.154354209956486 -1.082648636411410
8.400707000109517 7.362036226259829 -1.371517590681530
6.286711164656733 5.513297721037739 -1.324374181030594
5.009664859613855 4.396452725666046 -1.295593078606739
4.283567245309412 3.760557309714740 -1.315963667911610
3.560114594260522 3.127637092677786 -1.269766235272967
21.479746289115344 18.658898909512807 7.623773792539851
22.039333165122947 19.151747754371417 6.740883294468259
15.450167784728672 13.435360916961354 3.979894025563972
15.899408386735454 13.830891613055833 3.337685746098366
17.067250902680193 14.857266580838225 2.778377290950552
16.426210769243138 14.309314655976783 1.905921782405789
16.484935362966219 14.365532535752214 1.145948097895498
16.894889760420096 14.733159798036302 0.391282952323896
13.055428315291296 11.340912219193822 -0.301856821739256
10.507740711553195 9.134239644964834 -0.729667901939123
9.468776484250254 8.236886434791856 -1.097988047134998
8.360464735169671 7.275330066902718 -1.360793088461877
6.291020822387091 5.478346772784263 -1.321245491729790
5.017580262091442 4.372489847169954 -1.293684988652974
4.309888459794899 3.757106826611959 -1.320012786889800
3.568098850298489 3.112651016085594 -1.268730959092557
21.665035328546480 18.680970038657087 7.665184839756254
21.272444962712381 18.355403898452039 6.486688603059692
15.595044513989608 13.466031868683256 4.005080812953675
25.045550113862948 21.633999925586430 5.241806054568056
24.356178544862402 21.053380184314545 3.952954022689363
20.616923945087496 17.833761609824588 2.384929744546918
16.186096148521358 14.006008783267800 1.121768886111258
16.677131632628203 14.441090598824923 0.385069895632223
13.858100578184860 11.953552476096359 -0.319448847428037
11.679545232662058 10.081513007618135 -0.808590523953482
9.308999097488327 8.040984720510286 -1.076199111448083
8.366283107548471 7.229229746012325 -1.357624485533343
6.332518845521031 5.475734480162081 -1.325938525680997
5.016481871017927 4.340817483219960 -1.289487190754690
4.305296065408701 3.726734753263333 -1.314613961585547
3.573101504799579 3.095117614957011 -1.266660406731737
21.729799012444836 18.611536852521329 7.666220115936665
21.198762208364514 18.163119744895578 6.444847706951733
21.067082426289176 18.063052478087485 5.394170299294921
15.947597247512499 13.678403129676434 3.327673940335791
16.092031321763475 13.812038046666109 2.603860391194381
20.679049784933611 17.761686465699498 2.384929744546918
25.448341637057879 21.865854649172626 1.758383457850427
16.636462924880021 14.304564552395254 0.382975606859749
12.323263248170237 10.554854555041610 -0.283217651664237
11.773807123210197 10.091373190093181 -0.812672728540432
9.356670706932505 8.025303868331660 -1.078465160759522
8.367362106136365 7.179299750810139 -1.353724666544378
6.335108177201578 5.439441345785334 -1.322496967450112
5.046494396301445 4.336074803267566 -1.293303370662221
4.279854460288813 3.678657142920382 -1.302916506759666
3.575096094503837 3.075067762342356 -1.263554578190506
21.728410294361169 18.479252206065709 7.642926401877438
21.199695229518142 18.035975754123104 6.425951818386848
21.014900807614037 17.891407834179233 5.364785714006934
16.299029986685692 13.881375099132770 3.390873464212045
24.579616217647207 20.948499583696925 3.965384695716689
16.417497676232987 14.002057212261047 1.887793387914276
16.597998478815509 14.161006485246164 1.143435971995837
12.137560241002635 10.362792634798101 0.278575311551919
10.612809881838723 9.025823231643379 -0.243181831297108
9.696306733353261 8.252203859614148 -0.667283442097534
9.225360090668742 7.856951238678141 -1.060162454782514
8.399926812014394 7.156485313619532 -1.354943359978430
6.348043946442351 5.412168179631923 -1.321245491729790
5.098937820303001 4.350289080538018 -1.302843820431048
4.314903425352288 3.682671573342111 -1.309665038389982
3.594622252559176 3.070097437447970 -1.266660406731737
21.766470327830234 18.374566364857262 7.632573640073337
20.740083722942245 17.514323533461994 6.267136374020079
21.000860070322954 17.747102725103250 5.344559960497020
16.139234849682630 13.648370582895751 3.347697551860941
24.286440785894776 20.545440901529375 3.905912456134976
16.398757319396712 13.882572820083039 1.879775059581491
16.589419443569238 14.053924042429799 1.139458439321373
13.394379274127239 11.351223877626076 0.306464257038698
13.417675396166150 11.326777530564545 -0.306499161851573
9.755476191168574 8.241098409469451 -0.669272208434766
9.366690334581991 7.918269708917448 -1.073061504709167
8.395785055844271 7.100013528754991 -1.350068586242224
6.354266846602343 5.377380407210405 -1.318429671359066
5.137321149183615 4.350602827565325 -1.308568090292344
4.312016185584617 3.652975810761450 -1.304716115194417
3.657425882343169 3.100625432755824 -1.284777739888913
nan nan nan
25.152449632864634 21.090453932711039 7.578151118736125
15.955300501689576 13.388086766290396 4.048585263899527
16.237566374650129 13.629766032421799 3.357709357623516
17.197286916857692 14.445588280411132 2.757659502571677
16.357133337402988 13.749607033387152 1.869490681937268
16.448209082452767 13.831064108241922 1.126269778348151
16.679176656107813 14.035223255419398 0.380497365145655
12.810404517405912 10.737780532215211 -0.291769330818506
10.947145633906466 9.182490446033825 -0.748822861924040
9.412585612234768 7.900897012201673 -1.075153242535111
8.426598471840379 7.075769607945697 -1.351043540989465
6.372998694762848 5.355167115807971 -1.318429671359066
5.141957964483191 4.323799016181212 -1.305896764357073
4.330706340738967 3.642919605782299 -1.306515723629168
3.622410915871169 3.049272849388438 -1.268730959092557
21.978630664533743 18.298910829072128 7.663114287395434
20.713570500318585 17.251772439112731 6.223495869477369
21.679176477620327 18.068820095605950 5.485758617075663
16.171918852287753 13.483501296528933 3.334869925727642
24.803733571846475 20.695045494514567 3.966359650463930
16.407226891044392 13.699120074672377 1.870013616393754
15.806473835844532 13.206891409849723 1.079481433466959
13.606353913644659 11.372643347757171 0.309535880571660
15.109618401580619 12.579926566489602 -0.343184120182743
10.205701676988657 8.503070068370507 -0.696172889943639
9.457097473367357 7.884950895948283 -1.077244980361055
8.475931856108504 7.069402174032562 -1.355187098665240
6.396788209284226 5.339067172793907 -1.319681147079388
5.153254327467488 4.304206815378131 -1.305133528375567
4.360708186972194 3.643532396503495 -1.311914548933421
3.647323244449804 3.049635591280378 -1.273907339994607
22.121286074946202 18.287316720500090 7.690549106176301
25.170779018266028 20.815680713431405 7.540809243715042
21.829841066034273 18.065633553097928 5.507892460539343
26.071338944579885 21.583420613367235 5.360696247998631
16.245028984354679 13.458170609144025 2.590211024733005
nan nan nan
19.381741250627769 16.079606231352003 1.319808144534558
12.511882448603664 10.383876582933601 0.283811033483104
12.132614704063458 10.029840353282648 -0.274770686948592
nan nan nan
9.464612125386720 7.835374503735101 -1.074978931049616
8.492912650710442 7.033441850547868 -1.353968405231188
6.404739378778547 5.307882325815513 -1.317491064568824
5.181848068789332 4.297471831792842 -1.308568090292344
4.365900950502991 3.622067141511328 -1.309665038389982
3.654973506897249 3.034417468483962 -1.272872063814197
21.979081071767286 18.034556046782686 7.618079773547596
25.062557220370369 20.579292043928209 7.486820990672516
21.844229538981295 17.949438254681564 5.495680684835244
17.601434624023849 14.473422348075028 3.609255977408206
24.690051290148723 20.309520216993668 3.925411551079800
17.336201652363211 14.270546225485822 1.964490441532215
25.800467358136576 21.245584867534884 1.751579783538844
19.719470864307670 16.249697739099783 0.446013698911217
12.946571527718922 10.626867540433402 -0.292362712637373
12.317469470232730 10.117683489289837 -0.835386533549869
9.796655664512661 8.052792307642612 -1.109492605177689
8.354883725053876 6.870108227241698 -1.328132104429297
6.421702980740870 5.284238112356188 -1.317178195638744
5.174084240528935 4.260637775201589 -1.302843820431048
4.345426901286580 3.579546660148228 -1.299767191998852
3.680449975444496 3.033928830940007 -1.278048444716247
35.515360686916345 28.934669408960076 12.274752033032149
25.188613358757724 20.536012318829776 7.503017466585273
21.897624509134168 17.865631710969026 5.493390976890725
17.599270773982784 14.363847561990610 3.597992695925310
24.751569565013043 20.215677861010292 3.923949118958939
16.574464246846716 13.546729839737251 1.872802600161679
15.812496799418000 12.933163966339650 1.070584320905659
12.608832739935471 10.316535606386267 0.284369510489098
11.884570697079285 9.685913351392724 -0.267615200309305
12.272227958945846 10.008984891300377 -0.829943594100603
9.735179482219861 7.945478870519113 -1.099382539018960
8.412642919715678 6.868522105162288 -1.333494355539124
6.421752684719556 5.246792016146136 -1.313423768477779
5.193484807671116 4.246278969817836 -1.303988674403307
4.357895377073957 3.564356481762292 -1.299767191998852
3.667098829043304 3.001485613123933 -1.269766235272967
32.131581554669829 25.991797072891806 11.073831663756453
24.308931488830300 19.677960710264987 7.220478942329379
21.953751715763502 17.784142764331555 5.491864504927713
31.979081920701354 25.923885923912422 6.520188502876823
25.044008742363360 20.309203950068156 3.959047489859621
19.542506058194167 15.859122848764898 2.201902684776836
25.313467689041911 20.557029519708198 1.708978315157088
19.858818985115271 16.133070093192647 0.446607080730085
13.480575294911915 10.908565521429963 -0.302694537248245
10.913249755381814 8.837375402177512 -0.735948216688276
9.581746135815658 7.764684518972027 -1.078988095216008
8.394931875517241 6.805362856244002 -1.326913410995246
6.461505271262278 5.241766727192712 -1.317803933498905
5.200654323896401 4.221937559336614 -1.302080584449542
4.408129295625508 3.579835254894461 -1.311014744716045
3.644571084078231 2.961862577110877 -1.258378197288456
27.323955121393567 21.945478463175768 9.390472594409658
25.431616834901291 20.440237916093050 7.532711005758665
21.977450610797703 17.676640280442832 5.482324055158885
21.155941144417167 17.028059164500270 4.301322050746188
16.929223758840521 13.630915396645431 2.668694881885919
17.072007071929015 13.755705741376492 1.918123586390461
16.844604524748160 13.582176970238738 1.134015499872107
12.425287077694010 10.022362692166663 0.278645121177669
13.618339219197370 10.941601324949408 -0.304928445272218
11.306705242834779 9.090824414999156 -0.760336772297488
9.652256214376335 7.766162138404051 -1.083868816809877
8.400079004642151 6.761081499570585 -1.323988546753522
6.516684812991310 5.248918847016685 -1.325312787820836
5.163389776674933 4.161868430933125 -1.289105572763937
4.432734562603470 3.574211861306626 -1.314613961585547
3.657894610525645 2.951548868159314 -1.259413473468866
25.647764527957325 20.459687468330696 8.791047685952220
21.580591013955676 17.221393531057732 6.374213075887759
20.891505663170797 16.683440587977596 5.196873798075575
26.918740414878059 21.512034450274228 5.457685616323574
17.339524312070598 13.861791011446991 2.725729734599529
19.593626444134532 15.675008693643383 2.195278848328014
17.066538188899987 13.663097048408869 1.145738754070526
19.816440914526360 15.870285133713312 0.443151504255503
11.857162313586537 9.458673676328019 -0.264753005653591
10.367490171965606 8.276258672220905 -0.695230842731266
9.634163260065169 7.696359080659083 -1.078813783730513
8.325931685973760 6.653644505606361 -1.308633009484474
6.508740995700059 5.205165746505351 -1.319994016009468
5.167156170038906 4.135232525870248 -1.286434246828665
4.428449790538298 3.545320005288700 -1.309665038389982
3.656113747436543 2.929099442843355 -1.255272368747226
25.746814481637262 20.384733048047323 8.799329895395500
25.506488956033444 20.208946747314389 7.512915312976404
21.760339003034467 17.253216756401237 5.397986479202452
21.395003777225106 16.975718348264930 4.325725827292464
31.113956267747781 24.696004604797192 4.877454861760812
16.318914820785082 12.962060136062560 1.823298138281009
20.086350604372743 15.965960145235188 1.344720059706199
20.209799974963946 16.069842520855371 0.450690943836409
11.886971844999584 9.414743711961982 -0.264683196027842
10.308663167254466 8.170545746070454 -0.689369215632056
9.723409490014737 7.712207214778197 -1.085786243150325
8.345996399116455 6.622073343957585 -1.308145532110853
6.489742319052310 5.152933856809305 -1.312485161687537
5.189244838171504 4.123277341237717 -1.288342336782430
4.463681136499126 3.548029033749343 -1.316413570020298
3.685970415450702 2.931953256224527 -1.262001663919891
25.720119424072827 20.225204569513753 8.767236333802789
21.688039011724292 17.060675334968710 6.370613859018257
21.064545120344402 16.582116388130466 5.210993663733439
21.565853842128398 16.988945382529462 4.348252390258257
19.735607602406922 15.552714110008861 3.085244297644713
20.012339757440561 15.782120856829190 2.229792522456087
19.986360842823913 15.767291867980703 1.334148196545124
20.259492948574664 15.994242869563045 0.450551324584911
14.161300935352530 11.135842865483749 -0.314457459186974
12.132697309894493 9.547491330709903 -0.809113883515912
9.615654841529546 7.572210711626361 -1.070795455397728
8.387773167991741 6.607641008569225 -1.311070396352577
6.575946934295726 5.184058560203463 -1.326251394611077
5.200523442339065 4.102706421968617 -1.287579100800924
4.486747101767230 3.540877043599723 -1.319562884781112
3.664344883946077 2.893925211831840 -1.251131264025585
25.780369265707005 20.120102646001918 8.762577590990942
25.785176678255407 20.138341487700579 7.553406502758300
21.815290024066620 17.050104973759176 5.381958523590822
27.245834945215947 21.302099327371241 5.477709227848724
22.173992705947843 17.349165087888046 3.456945795030413
19.897883919178280 15.579514273092913 2.210966882022593
26.071270769843849 20.420452949003362 1.735564980928503
11.851057859490998 9.289076719375869 0.262833240945490
12.606536560344392 9.842221131093419 -0.279168693370787
9.663510374502231 7.549961757197138 -0.642685542663350
9.759747907458827 7.630638582110949 -1.083868816809877
8.409223404291133 6.577098996539052 -1.310826657665766
6.573780382491599 5.145244862238276 -1.322184098520031
5.196265824629950 4.070001141068491 -1.282999684911887
4.488342073967815 3.516780450883551 -1.316413570020298
3.630337233682520 2.846547998916478 -1.236119759409639
26.514192767435294 20.551696238253815 8.988785436410547
26.129438225379776 20.260766484033077 7.633489078104715
25.646863756520560 19.900917179129735 6.310053477102337
21.543512779846441 16.728935988995872 4.320094186551016
25.763267096446810 20.012862076852731 4.005601579040388
30.400123068083037 23.631783404270799 3.368743768682484
19.990313973834720 15.545231534002280 1.327135178408570
11.796612767890728 9.180106282737427 0.260913476237389
11.716224737524641 9.081486808848181 -0.258749377839165
10.579879151121727 8.206595486906096 -0.701720501305391
9.649397647486744 7.490236405129385 -1.068703717571784
8.388229518044728 6.513615309739480 -1.304001974435078
6.509031367257523 5.058026290912292 -1.305602045225767
5.239887398864078 4.074736541610085 -1.290250426736196
4.475980382692986 3.481947061728468 -1.309215136281294
3.634153849653433 2.829111583453596 -1.234049207048819
23.886767082074297 18.375370551275790 8.075154207198647
26.027054807561946 20.036294862030310 7.583100041931689
22.576110767181639 17.392223745353864 5.539566753771849
21.626587787193440 16.666744081115858 4.324474351572142
19.990133555977359 15.416719560802836 3.099624880166521
16.728584976674082 12.910674689326743 1.848747615163325
25.998191125336117 20.071950144811520 1.721329600830422
10.527836655254697 8.133902165197869 0.232221720054494
11.795396575492266 9.077120765634056 -0.259796522225402
10.725559227042270 8.259792548597860 -0.709466222829347
9.678640914456478 7.458940483888385 -1.069052340542775
8.304010084509718 6.401878030783629 -1.287427743731978
6.523519482447660 5.032861452428455 -1.304976307365606
5.264956970822833 4.064819483919673 -1.292921752671468
4.529749610321701 3.498463323991373 -1.321362493215863
3.743361373329073 2.893198452265897 -1.267695682912146
24.507683858695426 18.730762322190976 8.265127386303897
26.181596586183908 20.017342079016800 7.608744462126889
25.936092762225211 19.843989620971850 6.347833658186893
nan nan nan
26.638005290719800 20.403151970555200 4.119915023154415
22.002258757102130 16.864630855849882 2.425370009181831
26.632023580335314 20.420704469470369 1.758802145500370
14.408275288659192 11.055858479218543 0.317005510526818
11.815899742308908 9.030670175611077 -0.259587093348155
10.635494149127354 8.134390975477237 -0.701720501305391
9.698575987718668 7.423171068941881 -1.068529406086289
8.358292847639230 6.399648494159861 -1.292546256154994
6.486860815614229 4.970352092510278 -1.294338763742870
5.247248019417406 4.023445712238568 -1.285289392856406
4.511947342810029 3.460887985744523 -1.312814353150796
3.671715891770688 2.818424985523460 -1.240260864131279
24.371459282604945 18.485539366656560 8.196281520306627
21.619456872473879 16.410060931956021 6.266236569802704
22.443831739531937 17.048146887811225 5.478507875251355
21.890523659298513 16.633884531118884 4.354509768859867
26.857596214347961 20.422990733771844 4.142826459714583
22.029282761662959 16.763595198090112 2.421883779471925
33.633596150784690 25.603385413517632 2.215276355851326
nan nan nan
11.842571592851622 8.985743762383796 -0.259482378909531
11.268276690170000 8.556187724141859 -0.741495828050028
9.794228743328167 7.442310313060233 -1.076199111448083
8.334750801155593 6.335596248209026 -1.285477834237496
6.477443745578226 4.927347154734527 -1.289019991931502
5.278443949601095 4.018185692050477 -1.289487190754690
4.533302871101550 3.452201125491598 -1.315513765802923
3.793698527735537 2.891070330105375 -1.278048444716247
24.529837575579915 18.477846982767520 8.228892719989544
27.245166676663928 20.530705694925793 7.875986314687402
22.636442673161927 17.070174804425879 5.510945404465367
22.005480720659325 16.606418153083794 4.366398788202924
26.914463231608398 20.318351431020513 4.140632811533290
22.062228789936974 16.667380633737082 2.419094795704000
19.213243486106936 14.520321921694755 1.262133920754833
27.000483731293240 20.420305463892465 0.590903577153545
10.639200750894323 8.014301883909763 -0.232500958557491
10.567623238318323 7.966167399698671 -0.693556092131492
9.789926851794281 7.385278959330783 -1.072887193223672
8.304525864975668 6.267003699101823 -1.277434457572756
6.469382171242408 4.885659233054574 -1.284014089050215
5.261112408740629 3.976061922932301 -1.281854830939628
4.422521056536005 3.343513192091351 -1.279971499216592
3.803767133965160 2.877810237580800 -1.278048444716247
23.161504893987445 17.314413128910267 7.748524572279266
28.657064735112385 21.438223433386849 8.262452226050163
21.756056800912532 16.287457423611567 5.282737845995020
21.857489809257547 16.369347954472570 4.325100089432303
31.660141888918012 23.727931332951005 4.857955766815989
21.967259094471988 16.475505637632448 2.402360893096450
19.838946352228376 14.884676096423087 1.299815809249753
14.539251094250185 10.916378506741390 0.317354558655563
11.615156368751769 8.686085781916569 -0.253164607779235
11.960962489807065 8.951199474185261 -0.782945905394440
9.726341003020122 7.284178631292623 -1.063125750035934
8.321585110892265 6.234406633777437 -1.276703241512325
6.457947781698024 4.841717955924082 -1.278382448308767
5.311078505206996 3.984772269108005 -1.290632044726949
4.427930824976992 3.323376178953227 -1.278171890781841
3.785985338598415 2.843631616324085 -1.268730959092557
24.327897970284489 18.054319094695988 8.117600530595460
21.605175925766485 16.039569821774858 6.212248316760176
21.349131730143210 15.861046506449268 5.169778920732105
25.877621393874783 19.239448627182611 5.107272414633458
17.513277129323036 13.025487453655140 2.679906861479193
22.049873213864210 16.411535156157285 2.404801253893385
18.619795309890851 13.863607722024552 1.216601638823472
14.516626855318464 10.816419416616526 0.315993270953455
11.540931219754139 8.564803056387680 -0.250860890129513
10.496082128898626 7.795078518241854 -0.685182339132621
9.727387758099612 7.229465356834776 -1.060336766268009
8.275878443982412 6.152935609665255 -1.266222477979482
6.485159219448214 4.825090786352635 -1.280259661889250
5.339820085059338 3.975831620776523 -1.294066606643727
4.566673429271491 3.401414400273820 -1.314613961585547
3.852143157479711 2.871299018855791 -1.287365930339938
23.162056056991236 17.064063904588767 7.708666439333477
27.548478984761523 20.303069728181065 7.900730930665227
21.382246937733527 15.770113186615129 5.164436268861562
25.137229889474444 18.553088104942830 4.948334998152583
23.253417553938416 17.168968931814298 3.549079018644705
22.046133758091063 16.289474742753882 2.398177417444562
27.084207771785870 20.019321898687107 1.765082460249523
14.541433353325299 10.756167564728267 0.315714032450459
11.715653738928832 8.631214068095352 -0.254002323288224
10.518405340725637 7.754837230258562 -0.684868323395163
9.645146351906366 7.116213351629681 -1.048657896739823
8.311680321107334 6.134619366400198 -1.268416126160775
6.481306136274136 4.787166992426064 -1.276192365798203
5.322090060757823 3.933828709256308 -1.286434246828665
4.572251108929448 3.380818580026840 -1.312814353150796
3.871459986116772 2.864729693256741 -1.290471758881168
23.205886386750937 16.971705097745939 7.703490058431427
21.771672322711577 15.928620778823895 6.227994890564246
21.953570140665185 16.073469259554411 5.288843733847069
25.224185233724789 18.474837634426947 4.952089425313549
26.835564775987951 19.669449339577461 4.085304129627353
22.040205028272457 16.166462553727392 2.391379269510244
nan nan nan
9.625775104322679 7.068248552182963 0.208451542486914
11.635953008405828 8.509994391019807 -0.251628796012754
10.735592331208684 7.857265816734449 -0.697219609068498
9.698860440333432 7.103693150594068 -1.051795503478739
8.283403926233611 6.069198207601710 -1.260860226869656
6.480453630650856 4.751665194731307 -1.272750807567318
5.305715100741224 3.893159748878963 -1.279183505004356
4.573027880573996 3.356765927304416 -1.309665038389982
3.847183627169419 2.826037327031742 -1.279083720896657
24.765763286472698 17.973575491313760 8.199387348847857
24.048801104643236 17.466064647716479 6.861906961705258
23.273674624799579 16.915521403168803 5.592611654486529
25.333256598932120 18.419202583104632 4.960849755355802
26.931348169058740 19.595510695303332 4.089447687303128
nan nan nan
23.190583953419363 16.892272398470251 1.503612022859776
15.681074565875807 11.430644589206512 0.338716304134798
11.659114751183580 8.464626182691436 -0.251489176761255
11.186297833052778 8.127321106647056 -0.724643650139800
9.704260252193315 7.055734615337744 -1.049703765652795
8.320592538709001 6.051923243391689 -1.263297613737759
6.520957048073263 4.746452613157540 -1.277443841518525
5.357357922960930 3.902357506500618 -1.288342336782430
4.565817763747217 3.327010939815704 -1.304266213085729
3.836732984303125 2.797793813436046 -1.272354425723992
24.991358070763766 18.011077907254172 8.254256986409592
26.561368177648280 19.149616571733070 7.559705132279928
23.213169713110680 16.748025667349072 5.563990305180046
25.477484931012448 18.388464345939195 4.976493201859824
49.929439130270374 36.063262703502453 7.562480235663021
nan nan nan
36.357444806139284 26.289399861706094 2.351349842082981
15.699818892021538 11.360598100923029 0.338262541567429
11.807017861379649 8.509226187368670 -0.254037228101099
11.112545339410307 8.014620468499794 -0.718049319653189
9.476804747758944 6.839917153889474 -1.022511173915526
8.311087863097740 6.000763366069553 -1.258666578688363
6.484647661865379 4.685483296152742 -1.267119166825870
5.380492575871048 3.890535254450277 -1.290632044726949
4.602666733521413 3.329327172307373 -1.311464646824733
3.826132288884412 2.769657873614189 -1.265625130551326
25.170343714743840 18.006910044659381 8.292562205084764
24.571084368551645 17.584682917082180 6.975732195203254
23.241163451571950 16.645175001854241 5.556739563355737
27.966243405335444 20.036633125803750 5.448925286281321
18.751071273977704 13.444258852966367 2.832974756796058
nan nan nan
14.286563425034114 10.254598589744763 0.921636189438241
15.502257125912500 11.135399594360949 0.333166438887742
11.644738181830924 8.330667046513705 -0.249918460181900
11.770555357599404 8.426889966679376 -0.758662021697714
9.505481603465462 6.810276404029952 -1.023034108372012
8.283579558619904 5.937023312768447 -1.251354418084054
6.460834139478406 4.634036272059023 -1.259297443573859
5.394040298460944 3.871730127953563 -1.290632044726949
4.625340769364241 3.321196907631549 -1.314613961585547
3.831070414243014 2.752903360661075 -1.264072216280711
25.207844670143523 17.901042875758140 8.284279995641484
24.517932485639438 17.417548127707217 6.943339243377737
25.881693328577430 18.399961499033257 6.172671000431225
24.980760222382514 17.772595356814715 4.855725794848766
32.046813747478453 22.808173965681735 4.829682079145995
17.844775685618107 12.709767673260011 1.916729094506499
14.344886412345812 10.224554953805578 0.923206268125529
15.498699651084541 11.051034211317221 0.332258913753003
12.091132049431323 8.586369682358534 -0.258854092277789
11.192647006941502 7.954200204893985 -0.719619398340478
9.662335211965109 6.871741671351287 -1.037327650182628
7.641077518509569 5.436254846433672 -1.151421556491833
6.502717546945872 4.629786771848634 -1.264303346455146
5.373945132497484 3.828953983441705 -1.282618066921134
4.587712001371234 3.269967577427672 -1.300666996216227
3.810774242281889 2.718198850340136 -1.254237092566816
24.580023488150427 17.320031816723354 8.057036874041470
23.600725863872537 16.642312608939175 6.667099348643472
26.279409176012170 18.544953784950469 6.252047542507866
26.711144342677400 18.856606754793638 5.178606530691803
18.946614648627154 13.385185538211182 2.848330294065107
17.960614496880503 12.698008353813265 1.924398799868293
14.498040529824671 10.253792359760073 0.930637973912027
14.961003970182615 10.589061534942475 0.319937514808281
12.441381267243701 8.769926687183780 -0.265695435601204
11.316635111206766 7.983007911683725 -0.725795041177145
9.687890870339693 6.839121008135739 -1.037501961668123
8.248614690484386 5.825228141639570 -1.239898699803970
6.531744299392281 4.616180478595700 -1.266806297895790
5.361631864527062 3.792033808654183 -1.276512179069085
4.587962537011133 3.246054778541627 -1.297517681455413
3.806049399635774 2.694833188781044 -1.249578349754970
24.619912097968339 17.226243656664106 8.051342855049215
23.768833749186658 16.636934933816789 6.698142594142924
28.048470744197235 19.647047083341420 6.656562612706143
19.721846958833353 13.819647909852689 3.814185126610909
29.504018762100106 20.689647907551723 4.424588381667284
17.988520673222915 12.623791787965988 1.922655685013339
41.606755797513671 29.220025760681111 2.664528204240756
15.210588159364169 10.686214845744942 0.324475140481975
12.376887846487676 8.659953167436187 -0.263670956454479
11.532578831980430 8.075198633150427 -0.737832311113022
9.620331268815482 6.741234286458584 -1.027740518480385
8.251017821685185 5.783865626050001 -1.237217574249057
6.534880826884572 4.584276783371479 -1.264303346455146
5.334665196153912 3.745094108576988 -1.266971729300258
4.589696917900008 3.223300149317844 -1.294818268803287
3.794885864676945 2.667090456208599 -1.242849054582305
27.174221813923364 18.872511965643145 8.865069932851542
24.599756124515221 17.090909242701922 6.915445312639098
28.945412459529727 20.125078902184086 6.852714259953230
19.745641099534701 13.733802516576731 3.809492092659702
18.865266972716736 13.131244021366236 2.822250254576405
18.019397479038158 12.551812853935020 1.921261193129377
18.953642331827098 13.212410586614407 1.210844683636748
23.855848165383129 16.635881043802616 0.507655598447703
12.333131224796610 8.565366405251112 -0.262100239875124
11.281888165189011 7.841116539300470 -0.720038085990421
9.645439609427827 6.708749648274035 -1.027914829965880
8.189683834573010 5.698340339170588 -1.225030639908542
6.529768897085572 4.546763601510044 -1.260236050364100
5.339651740234362 3.720837712319037 -1.265063639346492
4.580137897498006 3.192772206291972 -1.288969541390347
3.832692039630997 2.673723000787055 -1.252166540205995
24.356248015941581 16.789705079529469 7.926592075309800
24.486264003549696 16.891942071385728 6.867755689118199
25.389732711798430 17.528286963405868 5.997126724684803
19.809817472518567 13.686299006450541 3.813559388750748
19.040982425664708 13.160032809689550 2.841993088208039
18.006847097744675 12.454588198668667 1.915508914108031
18.345959070420065 12.693872207033630 1.169185262467365
11.810766470576123 8.178162429168776 0.250756175690889
10.601657839135536 7.310863277945663 -0.224786994912212
9.908938576536423 6.838271629363915 -0.630962288464931
9.580744566080392 6.616719437310074 -1.018676321234629
8.012549463792713 5.535747510928473 -1.195781997491307
6.551309921043581 4.529578737583591 -1.261487526084422
5.301912618287534 3.668480942918621 -1.253233481633146
4.593905005888329 3.179784563163935 -1.289869345607722
3.898707811959097 2.700600102839538 -1.270801511453377
24.457754836657710 16.734037270291392 7.940568303745336
24.540254910990672 16.803063226182140 6.866405982792136
25.458860770579665 17.445102165278207 5.999034814638569
26.675315323495258 18.285492399305930 5.122290123277319
19.049153724698883 13.067659568597431 2.836387098411402
18.130697995673980 12.446911147206164 1.924050176897302
18.182178730069097 12.491593432122677 1.156101273406629
23.241762903992441 15.973621088247340 0.492262575970019
9.973644490909008 6.826540373347959 -0.210964689013883
10.697312792297142 7.327345626278388 -0.679530055858383
9.567628986845277 6.558453199023513 -1.014841468553732
8.179166891838531 5.608783705993074 -1.217718479304234
6.531248900420599 4.482092767459204 -1.254604409622651
5.292028701800347 3.634391379077896 -1.247890829762603
4.577671130986235 3.144969999644698 -1.282221009760031
3.885824333721732 2.671651750395226 -1.263554578190506
11.318281823763082 7.686122219004091 3.665912954832104
24.397288401605785 16.580380076312675 6.810168219206170
19.399441808062463 13.193748607546892 4.560334989499421
24.946015471478319 16.978765788531330 4.779385775909134
18.781248637850116 12.787697032064077 2.789833009230636
17.936939777970146 12.221993571844298 1.898949322985976
18.542496471309640 12.644091830423163 1.176198280603920
24.580940877552646 16.767980982638761 0.519383615573557
10.068539331384779 6.840003662490828 -0.212465595967489
10.937545598301678 7.435939269761426 -0.693137404481548
9.547634692357940 6.495876442660609 -1.010309369930853
8.147822760952256 5.545573981658198 -1.210162580013114
6.535426108906830 4.451482890932336 -1.252414327112088
5.217082587041639 3.556184555540327 -1.227283458261936
4.582181066071171 3.124580245851766 -1.280421401325280
3.871190825022719 2.641737506829013 -1.255790006837431
11.639802087812065 7.845235440811687 3.761158363429832
24.358081364960604 16.429733334606727 6.783174092684905
24.366116830190030 16.447531240646168 5.714347793536763
24.920012168712820 16.834085001762176 4.763116591544949
19.893212267029568 13.443414269301867 2.948019416970518
19.171084379813113 12.965165779508451 2.024802215513594
18.737037845334381 12.681159597716865 1.185723424640135
15.045220591737072 10.186380137842335 0.317145129778316
12.725286249674324 8.580082891994868 -0.267894438812302
10.988269352834866 7.414471939550332 -0.694707483168836
9.512459992219544 6.423484587771899 -1.004208467938517
8.130942090956568 5.492652627008681 -1.204800328903288
6.560743890942152 4.435280862404579 -1.254291540692571
5.195316582709355 3.514849575650922 -1.219269480456121
4.583376779933071 3.102012864710827 -1.277721988673153
3.786018085646389 2.564290752267715 -1.225249359515333
11.373548046611784 7.611052456952820 3.666948231012514
24.525400788307628 16.418324807968514 6.813767436075671
24.506564662053758 16.418106096054466 5.733810311065172
24.972059311023163 16.742595210582916 4.761865115824627
19.875721297814152 13.330768344927797 2.938513608184916
28.976531301117074 19.449405733345774 3.053239979935961
30.521090394911376 20.501590214260268 1.926905236952706
18.873264460181478 12.682307397338041 0.396902627196702
12.751834981482363 8.533386817263343 -0.267824629186553
10.590911927651522 7.092674740187949 -0.668016145484935
9.462001364954189 6.341434905783324 -0.996538762576724
8.125333347241186 5.447655136869691 -1.201144248601133
6.538457759315800 4.387038500582393 -1.247095555300721
5.202664323599743 3.493409842875008 -1.218124626483862
4.552117536025002 3.057742928682930 -1.266024533847272
3.849457330899023 2.587703322467946 -1.242849054582305
nan nan nan
24.428363050478119 16.230165606603951 6.771026735750337
24.759908075530287 16.462904490464616 5.779604469955542
24.918519001662549 16.580911704267603 4.740590028579157
30.833368011809725 20.524447941226175 4.547920157193293
29.107255758072650 19.390114998610137 3.059863816384783
18.511027486827441 12.340653478977286 1.165940433180302
16.440236960649262 10.964275097503791 0.344929360826471
12.711581532714771 8.442357017974489 -0.266358627045821
11.161189694763218 7.418284918767457 -0.702348532780306
9.449242013710409 6.285195478569996 -0.992878221381322
8.005476419530936 5.326885504470896 -1.180670198909069
6.492896607848234 4.323677767819746 -1.235519404887744
5.173983960662674 3.448009608832238 -1.208584176715035
4.559520415503853 3.039672515104623 -1.265124729629897
3.797399704904001 2.533508454085574 -1.223178807154513
25.178409476790893 16.589494853124055 8.079295311920287
24.328230804294204 16.035421090736584 6.726936329098939
24.980686675695086 16.477984249423372 5.817003033049345
26.525481815258740 17.510266801534478 5.034061084994629
30.355120188774503 20.045933600581794 4.466511435798655
17.552753659918412 11.600299765386458 1.840729286830540
19.796160419606707 13.087891730054759 1.243711664157317
16.807183819338704 11.120214271076843 0.351770704149886
12.822590564221747 8.448520164268372 -0.268034058063800
10.736436677200262 7.079375618017408 -0.673982444496631
9.448933510836069 6.235157123290495 -0.990437860584387
8.018319948974691 5.293133696287717 -1.179695244161828
6.521885582991194 4.308561835183840 -1.238022356328387
5.176760612234149 3.422526437916115 -1.206294468770516
4.547875117185963 3.007890418244483 -1.258826100108269
3.816325633406568 2.525970833572810 -1.226284635695743
11.625031174521451 7.598516880681639 3.721300230484043
25.065740420514725 16.396313477233768 6.914995410530411
24.959208893754646 16.339070946156770 5.798685369493197
18.921663687160848 12.391425146654820 3.582349249421287
18.233361335943716 11.949765800555419 2.676738258550659
44.256075098300364 29.026599892870543 4.630410300697583
18.666117065410734 12.247361214869688 1.170022637767252
16.451412010413677 10.802448047821679 0.343533168311489
12.210993092364870 7.984563680867184 -0.254665514732841
10.674178673740775 6.984986798215775 -0.668539505047364
9.440638675048504 6.182488464682732 -0.987300253845472
8.018482247837046 5.253146124535482 -1.177014118606914
6.503845933478656 4.264108243609550 -1.231764977726778
5.170619787798802 3.392588186606411 -1.202096670872232
4.545313749215860 2.983442372961802 -1.255226883238767
3.828348978374443 2.514755243297380 -1.227319911876153
25.214589005100759 16.368289552071175 8.054966321680650
11.679072183436094 7.584478157425232 3.215000468682518
24.660977804853548 16.027267705261302 5.717019119472035
19.033360365169596 12.379308972928614 3.596115482344827
18.737114462424117 12.191284613677961 2.744741352170732
18.526229566505577 12.063279247506291 1.934160243056030
19.133376238562288 12.463376162765043 1.196713975451154
16.467041576525528 10.734729353219423 0.343114310556994
10.415882277708063 6.761568750032890 -0.216758887951061
11.340426401449410 7.367373333266653 -0.708733519441945
9.436032788629181 6.134858068234087 -0.984685581563042
8.047506802853720 5.234103240990332 -1.178720289414587
6.526228279274617 4.247905275469420 -1.233329322377180
5.188421702120483 3.379709391500488 -1.203623142835245
4.501303709725605 2.933243611851389 -1.240380113652072
3.847994306641346 2.509433046519495 -1.230943378507589
25.168838437106800 16.207777875387869 8.021319845817324
11.789016139407861 7.597502455265887 3.237945476225593
24.753070410254690 15.964497098347930 5.725414715268603
18.756589178512993 12.101701348155379 3.535418909909218
18.265915554053215 11.794152277106132 2.669669836633160
nan nan nan
18.686988416479927 12.079904081570165 1.166149777005274
14.961426180948097 9.678980666828853 0.311036787525267
10.999216144614181 7.085794364717201 -0.228382190638292
11.243533493614219 7.248740575211824 -0.701092469830476
9.454041610804030 6.099722450500166 -0.984336958592051
8.075735311527497 5.212439344677026 -1.180182721535448
6.552631675041551 4.232601319683677 -1.235519404887744
5.218323834409199 3.373301785248756 -1.207820940733529
4.514787988493526 2.919629699884660 -1.241279917869447
3.822671824401964 2.473943825106195 -1.220072978613283
25.227330002639043 16.127347507057291 8.022872760087939
11.866357893977186 7.588852474540746 3.251892441594912
