# This PCD file was generated using the MATLABÂ® pcwrite function
# from Computer Vision ToolboxÂ®.
# .PCD v.7 - Point Cloud Data file format
VERSION .7
FIELDS x y z
SIZE 8 8 8
TYPE F F F
COUNT 1 1 1
WIDTH 997
HEIGHT 1
VIEWPOINT 0 0 0 1 0 0 0
POINTS 997
DATA ascii
-0.915060978673620 1.639323793154876 -0.098391597736734
-0.915344083858538 1.638486833036208 -0.164201419336588
-0.904528988445459 1.618464057754846 -0.227651933480815
-0.910307174252422 1.627468662652208 -0.295348269995956
-0.909121390510451 1.624017849343265 -0.361773855233929
-2.589972634386598 4.624728910693908 -1.223733735630626
-2.179979988269486 3.889449105433076 -1.194708712193236
nan nan nan
nan nan nan
nan nan nan
-0.930201633976849 1.677437651272702 0.303795731108128
-0.920625930728070 1.659486753623129 0.233014184590642
-0.912018549291075 1.642619488763514 0.164375730822083
-0.911912018462634 1.641077561871533 0.098391597736734
-0.915254370822290 1.646415597698418 0.032880333727842
-0.904345792470842 1.634172529517745 -0.032601095224846
-0.909619753758769 1.642349231152330 -0.098391597736734
-0.901212266927928 1.625829967174401 -0.162632615967130
-0.903970469090717 1.630134849375199 -0.228870626914867
-0.906822460726456 1.633932805042974 -0.295974007856117
-0.898964441118640 1.618442326616421 -0.359865765280164
-2.584087763051766 4.650326303408423 -1.228232756717503
-2.150169230458229 3.866266923061911 -1.185391226569545
nan nan nan
nan nan nan
nan nan nan
-0.922436722594525 1.677212702075410 0.303169993247967
-0.910999901496218 1.655733364792642 0.232039229843401
-0.906279180918845 1.645793020203262 0.164375730822083
-0.908106071436946 1.647749136653545 0.098600941561706
-0.905639728735687 1.642595728519689 0.032740714476344
-0.900560230230139 1.640825366607941 -0.032670904850595
-0.907727646964767 1.652516579776920 -0.098810285386678
-0.892652048023006 1.623728047525463 -0.162109681510644
-0.898274729274296 1.633280363833101 -0.228870626914867
-0.895398138925660 1.626705028087532 -0.294096794275634
-0.893309546321769 1.621570438010547 -0.359865765280164
-2.572542354288417 4.667851671309680 -1.230482267260941
-2.136660340784851 3.873748859708011 -1.185391226569545
nan nan nan
nan nan nan
nan nan nan
-0.914392041441023 1.677113641969785 0.302544255387806
-0.899221906148596 1.648604956881577 0.230576797722539
-0.898331647902667 1.645606076272960 0.164027107851093
-0.900145466252946 1.647560995253007 0.098391597736734
-0.893858775784262 1.635375860287393 0.032531285599096
-0.896451666538447 1.647628130124033 -0.032740714476344
-0.895933853716680 1.645308109376838 -0.098182253911763
-0.888601661972506 1.630487775374183 -0.162458304481635
-0.892282423948608 1.636561734872227 -0.228870626914867
-0.885645144422234 1.623039832401398 -0.292845318555312
-0.883596205275033 1.617941499835061 -0.358339293317151
-2.543270139340237 4.655017260056041 -1.224633539848001
-2.137277320853598 3.908674120711805 -1.193673436012826
nan nan nan
nan nan nan
nan nan nan
-0.908532251543959 1.680295248293080 0.302544255387806
-0.893461722555139 1.651733783235308 0.230576797722539
-0.892581937779807 1.648731813315693 0.164027107851093
-0.892485965987621 1.647180938917140 0.098182253911763
-0.888144803029575 1.638486046418714 0.032531285599096
-0.889745341450055 1.648987433967337 -0.032705809663469
-0.886389099373916 1.641395945414412 -0.097763566261819
-0.888588720223173 1.644096247661520 -0.163504173394607
-0.879011057669357 1.625696942391298 -0.226920717420385
-0.879974282481002 1.626121422764082 -0.292845318555312
-0.875138222119327 1.615837004368607 -0.357194439344892
-2.524220511610372 4.658726378680051 -1.223283833521938
-2.130987767988850 3.929696611532115 -1.197814540734466
nan nan nan
nan nan nan
nan nan nan
-0.893908239639549 1.665735386515314 0.299415566087002
-0.888268247318474 1.654532520429195 0.230576797722539
-0.887397897835834 1.651527801402855 0.164027107851093
-0.883236213759028 1.643094664289428 0.097763566261819
-0.884887807660948 1.644790180066486 0.032601095224846
-0.876064200163407 1.635909012489166 -0.032391666347598
-0.881228136261147 1.644172514358964 -0.097763566261819
-0.883419263019974 1.646879713581958 -0.163504173394607
-0.870144780721701 1.621453845446374 -0.225945762673143
-0.874861337273274 1.628877914376844 -0.292845318555312
-0.866339415261423 1.611661352314108 -0.355667967381880
-2.516033091925105 4.678647583771516 -1.226433148282752
-2.122294051112700 3.943176349591705 -1.199885093095286
nan nan nan
nan nan nan
nan nan nan
-0.885941634886492 1.665512551175411 0.298789828226841
-0.882487439400367 1.657623075265485 0.230576797722539
-0.876006153783068 1.644065185535048 0.162981238938121
-0.877495362066513 1.646167723733985 0.097763566261819
-0.879141027451811 1.647868994319972 0.032601095224846
-0.869410599259273 1.637190963167894 -0.032356761534724
-0.873608837327846 1.643711280312766 -0.097554222436847
-0.866437071725130 1.628845243227292 -0.161412435568663
-0.864479549341595 1.624481339104948 -0.225945762673143
-0.869170162321575 1.631921826660249 -0.292845318555312
-0.856090854967854 1.606013199560469 -0.353759877428114
-2.507022071928870 4.701157805428299 -1.230032365152254
-2.108516867265885 3.950560515145031 -1.199885093095286
nan nan nan
nan nan nan
nan nan nan
-0.878569926651470 1.664947164086429 0.298164090366680
-0.871135439674661 1.650160493169612 0.229114365601677
-0.868400435481553 1.643589765081037 0.162632615967130
-0.869877129251368 1.645689203248943 0.097554222436847
-0.867772934318258 1.640322198354917 0.032391666347598
-0.870212373839114 1.652601462242920 -0.032601095224846
-0.867865891897009 1.646750730185522 -0.097554222436847
-0.858886999371332 1.628335214439094 -0.161063812597672
-0.856950917701911 1.623977735758607 -0.225458285299523
-0.854243307096276 1.617478484250911 -0.289716629254508
-0.850479607121490 1.608991729932918 -0.353759877428114
-2.492418638595048 4.713325718046122 -1.230932169369629
-2.092906645825607 3.954481620685848 -1.198849816914876
nan nan nan
nan nan nan
nan nan nan
-0.874292668464510 1.671656952971327 0.298789828226841
-0.861687571837948 1.646156413514527 0.228139410854436
-0.862657945949396 1.646611034978831 0.162632615967130
-0.867836003184186 1.655791647661753 0.097972910086791
-0.858326156896569 1.636257930109211 0.032252047096100
-0.862587370714656 1.652083757967751 -0.032531285599096
-0.854712265598503 1.635608998054046 -0.096716847136960
-0.851351067597337 1.627792366220008 -0.160715189626682
-0.854958154332563 1.633994657929512 -0.226433240046764
-0.846759236992293 1.616950602548220 -0.289090891394347
-0.842123828176208 1.606733986461691 -0.352615023455855
-2.472331065616215 4.715093662870195 -1.229132560934878
-2.082681007579799 3.968605559554277 -1.200920369275696
nan nan nan
nan nan nan
nan nan nan
-0.866633422265169 1.671191397365596 0.298164090366680
-0.853820010805532 1.645779446441864 0.227651933480815
-0.862125811631151 1.660371174920440 0.163678484880102
-0.852554541826191 1.641237358433309 0.096926190961932
-0.856012917422716 1.646489801109220 0.032391666347598
-0.858364426666867 1.658786206725569 -0.032601095224846
-0.843200602950414 1.628089580670770 -0.096088815662045
-0.847212986308246 1.634439538221640 -0.161063812597672
-0.841652748874224 1.623019372840823 -0.224483330552282
-0.840827129253301 1.620043269553155 -0.289090891394347
-0.838039217249903 1.613294169117397 -0.353378259437361
-2.455931398333461 4.725852720224740 -1.229582463043566
-2.069012783715764 3.977926195302949 -1.201438007365901
nan nan nan
nan nan nan
nan nan nan
-0.855084735067154 1.663814948394027 0.296286876786197
-0.849885962333986 1.652280321326447 0.228139410854436
-0.852676966375215 1.656284729980735 0.162981238938121
-0.846820360264239 1.644203330171654 0.096926190961932
-0.852092838060951 1.653022700359214 0.032461475973347
-0.837963917203026 1.633305159510445 -0.032042618218853
-0.839337018377034 1.634576408144129 -0.096298159487017
-0.841502566109618 1.637386905866304 -0.161063812597672
-0.834166846939406 1.622416570806010 -0.223995853178661
-0.836974721095004 1.626481352792385 -0.289716629254508
-0.830604818126925 1.612718909586406 -0.352615023455855
-2.442097870365894 4.739593651988042 -1.230932169369629
-2.059541842941630 3.993709092077578 -1.204026197816926
nan nan nan
nan nan nan
nan nan nan
-0.846263828881595 1.659454019864534 0.295035401065875
-0.846206408434117 1.658626076095570 0.228626888228057
-0.843555541194828 1.652005434172881 0.162283992996140
-0.843180528847226 1.650559688001187 0.097135534786904
-0.844785872944051 1.652278308525953 0.032391666347598
-0.833449984369812 1.637857184271605 -0.032077523031727
-0.837537656856466 1.644469678901763 -0.096716847136960
-0.829734318831519 1.627742907648060 -0.159843632199205
-0.830585793968059 1.628710678163131 -0.224483330552282
-0.833372574174096 1.632766812031863 -0.290342367114668
-0.819893501498385 1.604974398397869 -0.350325315511336
-2.422820063209763 4.740724848476013 -1.229132560934878
-2.046286902279795 4.000516820178198 -1.204026197816926
nan nan nan
nan nan nan
nan nan nan
-0.841957863061399 1.666070661093953 0.295661138926036
-0.842203489914213 1.665112575488895 0.229114365601677
-0.832384575558128 1.644274364488803 0.161238124083168
-0.839218634649378 1.657056443777723 0.097344878611876
-0.831780326201667 1.640947982393645 0.032112427844602
-0.827727718209081 1.640756489252606 -0.032077523031727
-0.831792283878495 1.647383212236935 -0.096716847136960
-0.820452844710031 1.623516417332601 -0.159146386257224
-0.821312864606045 1.624513830158920 -0.223508375805040
-0.816965472753485 1.614515025944871 -0.286587939953703
-0.815173122167154 1.609578027835189 -0.350706933502089
-2.413303225463580 4.763059930964373 -1.232731777804380
-2.035804970054346 4.014527214145235 -1.206096750177747
nan nan nan
nan nan nan
nan nan nan
-0.836428344281920 1.668853533360782 0.295661138926036
-0.831047397111521 1.657395191539004 0.227651933480815
-0.826639915749023 1.647169911403371 0.161238124083168
-0.833429315421690 1.659975768137527 0.097344878611876
-0.824251526354846 1.640267872001213 0.032042618218853
-0.827362039133590 1.654366830221501 -0.032286951908975
-0.818884942217557 1.635988563006964 -0.095879471837073
-0.820135244607146 1.637058527340017 -0.160192255170196
-0.818305637334548 1.632694854939681 -0.224239591865471
-0.811324786360038 1.617356931450486 -0.286587939953703
-0.811311485647628 1.615922768333751 -0.351470169483596
-2.391414175195647 4.761006471677105 -1.230032365152254
-2.025250117801184 4.028513091628594 -1.208167302538567
nan nan nan
nan nan nan
nan nan nan
-0.834113620674445 1.678839291614665 0.296912614646358
-0.825256945215455 1.660285990893166 0.227651933480815
-0.822660070476863 1.653613053776324 0.161586747054158
-0.824070142879425 1.655722716254233 0.096926190961932
-0.820304171301345 1.646714868616768 0.032112427844602
-0.817141195883469 1.648286703813405 -0.032112427844602
-0.813169287497509 1.638837037887244 -0.095879471837073
-0.813529649522017 1.638126908101905 -0.160017943684700
-0.806418645957383 1.623096991545660 -0.222533421057799
-0.805674214230107 1.620179129972298 -0.286587939953703
-0.802166827819734 1.611714549450755 -0.349943697520583
-2.374780591903879 4.769325059271449 -1.230032365152254
-2.011175644359866 4.035557990738129 -1.208167302538567
nan nan nan
nan nan nan
nan nan nan
-0.819230267497296 1.664162484261939 0.293783925345554
-0.821211162530208 1.666717923270394 0.228139410854436
-0.816882871803795 1.656474598938976 0.161586747054158
-0.814750860627307 1.651424638580747 0.096507503311988
-0.812780302953748 1.645982214286684 0.032042618218853
-0.805209059826429 1.638566078786083 -0.031868094154480
-0.803917769437203 1.634496698884855 -0.095460784187130
-0.807806563210911 1.640956676494629 -0.160017943684700
-0.800748067168444 1.625902029471122 -0.222533421057799
-0.801760580291018 1.626525215042191 -0.287213677813864
-0.793061477051990 1.607462264114116 -0.348417225557571
-2.361568135677816 4.784575417881920 -1.231831973587005
-1.998787956436603 4.046017774160584 -1.209202578718977
nan nan nan
nan nan nan
nan nan nan
-0.809951233321101 1.659910770360229 0.292532449625232
-0.820615075769501 1.680276730518567 0.229601842975298
-0.811095719670727 1.659315960481391 0.161586747054158
-0.810736189371186 1.657847002206107 0.096716847136960
-0.810546270793716 1.655993673446189 0.032182237470351
-0.799484491215434 1.641366800225032 -0.031868094154480
-0.801708323188148 1.644474047046986 -0.095879471837073
-0.795083885587042 1.629441688253566 -0.158623451800738
-0.793326071645118 1.625119485742980 -0.222045943684179
-0.797812438012652 1.632863676041801 -0.287839415674025
-0.783995629261603 1.603166135610812 -0.346890753594558
-2.349990927369811 4.803292505945278 -1.234531386239131
-1.989750107926223 4.063380222634082 -1.212308407260207
nan nan nan
nan nan nan
nan nan nan
-0.804442317458722 1.662587538687182 0.292532449625232
-0.811577679688390 1.675842300400239 0.228626888228057
-0.798636547581596 1.647653515230200 0.160192255170196
-0.805234112894673 1.660526384888423 0.096716847136960
-0.798065088802680 1.644280484799129 0.031902998967354
-0.791428023549407 1.638606960576485 -0.031763379715856
-0.794512104146190 1.643527226111981 -0.095670128012101
-0.786204986892850 1.624895391121494 -0.157926205858757
-0.787932619250906 1.627741314341382 -0.222045943684179
-0.785502903940055 1.621278597305390 -0.285336464233381
-0.782101540876742 1.612823182091884 -0.348417225557571
-2.332348511958157 4.807552343823733 -1.233631582021756
-1.969513823154676 4.056053632470771 -1.208167302538567
nan nan nan
nan nan nan
nan nan nan
-0.802050518603690 1.672510080931087 0.293783925345554
-0.802287035201546 1.671506539122704 0.227651933480815
-0.794605826335661 1.654023037082337 0.160540878141186
-0.797702514140248 1.659726784967579 0.096507503311988
-0.790586873571967 1.643452172529534 0.031833189341605
-0.792610678797018 1.655789111715200 -0.032042618218853
-0.783592359985173 1.635483418827193 -0.095042096537186
-0.787420335376493 1.642001866840091 -0.159320697742719
-0.783963276041446 1.634061338607176 -0.222533421057799
-0.776418454343551 1.616887783074727 -0.284084988513059
-0.778167885935319 1.619082377946939 -0.349180461539077
-2.311330433791060 4.806883171023923 -1.231382071478317
-1.960370144965368 4.073348290614566 -1.211273131079797
nan nan nan
nan nan nan
nan nan nan
-0.796499865362637 1.675160580268608 0.293783925345554
-0.796447500728033 1.674296860107704 0.227651933480815
-0.790540347638071 1.660384451622019 0.160889501112177
-0.788757424221373 1.655150949382059 0.096088815662045
-0.784845338394293 1.646201823245585 0.031833189341605
-0.781683413300530 1.647705583357408 -0.031833189341605
-0.776165294391018 1.634600313469910 -0.094832752712214
-0.778262945975795 1.637542484169463 -0.158623451800738
-0.773140073537414 1.626031378707375 -0.221070988936938
-0.770769732508382 1.619588138617498 -0.284084988513059
-0.769134393453908 1.614699039554472 -0.347653989576065
-2.286992136796463 4.799089162532664 -1.227332952500128
-1.947802929891900 4.083653764950054 -1.212308407260207
nan nan nan
nan nan nan
nan nan nan
-0.785304554908649 1.667346163118575 0.291906711765071
-0.796523516431773 1.689635803292637 0.229358104288488
-0.781338885923103 1.655926322856163 0.160192255170196
-0.780980497206852 1.654418505053296 0.095879471837073
-0.780802780124126 1.652547493177526 0.031902998967354
-0.770822301736053 1.639566075801896 -0.031623760464358
-0.771305137380582 1.639106851445613 -0.094937424624700
-0.773391061920362 1.642051623950047 -0.158797763286233
-0.762382545278693 1.617945900340163 -0.219608556816076
-0.765111619087262 1.622268759989911 -0.284084988513059
-0.761817190700312 1.613823216162193 -0.346890753594558
-2.283541366288260 4.835236817865371 -1.234531386239131
-1.931885267426735 4.086934880252397 -1.211273131079797
nan nan nan
nan nan nan
nan nan nan
-0.774177294709312 1.659472327741372 0.290029498184588
-0.792005097843141 1.696141189164653 0.229845581662108
-0.773577173226269 1.655168985423730 0.159843632199205
-0.773508162873446 1.653516358725941 0.095670128012101
-0.774740646275568 1.655398178585866 0.031902998967354
-0.763963655462300 1.640567486369064 -0.031588855651483
-0.767823616387871 1.647353652749155 -0.095251440362158
-0.761471100124447 1.632236217294088 -0.157577582887766
-0.756447356332849 1.620729304624990 -0.219608556816076
-0.759160567738096 1.625062137794462 -0.284084988513059
-0.750907696037504 1.605933918742782 -0.344601045650040
-2.265803999318226 4.843573938019738 -1.234531386239131
-1.916892926170214 4.093988142572318 -1.211273131079797
nan nan nan
nan nan nan
nan nan nan
-0.770866605195319 1.667543774202645 0.290968104974829
-0.786079635034675 1.698895469407744 0.229845581662108
-0.764445682750258 1.650627524872210 0.159146386257224
-0.767731601179334 1.656206332301856 0.095670128012101
-0.763909647190803 1.647207809762862 0.031693570090107
-0.760745829325879 1.648671374403712 -0.031693570090107
-0.760393725137742 1.646397395119709 -0.095042096537186
-0.751588755635753 1.625841801648100 -0.156706025460289
-0.756618307274443 1.635972043903557 -0.221314727623748
-0.746844796804962 1.613361213703709 -0.281582037072416
-0.746948079732997 1.612107961383578 -0.345364281631546
-2.261995987259391 4.879741920204336 -1.241729819978135
-1.897712124959523 4.090139907125219 -1.208167302538567
nan nan nan
nan nan nan
nan nan nan
-0.768917073208546 1.677139902091282 0.292219580695151
-0.775475878513080 1.690666820769245 0.228383149541246
-0.762292961581999 1.660396173799467 0.159843632199205
-0.763612962127829 1.662506051402703 0.095879471837073
-0.758443109016050 1.649731968533377 0.031693570090107
-0.756938055313189 1.654822004968424 -0.031763379715856
-0.751604211375306 1.641645978867996 -0.094623408887242
-0.746193137441612 1.628325220347423 -0.156706025460289
-0.750361767596176 1.636667600821983 -0.221070988936938
-0.741490591815784 1.615828969491149 -0.281582037072416
-0.741598030110393 1.614576066560356 -0.345364281631546
-2.234409994725832 4.862425911941130 -1.235431190456507
-1.888981841168601 4.106941076477653 -1.211273131079797
nan nan nan
nan nan nan
nan nan nan
-0.762764883509421 1.679946859023586 0.292219580695151
-0.764641751715386 1.682520127528655 0.226920717420385
-0.754842524163939 1.659419809977302 0.159495009228214
-0.754785233237627 1.657758272598511 0.095460784187130
-0.754337734220538 1.656008958441968 0.031763379715856
-0.751157037013939 1.657454130120489 -0.031763379715856
-0.740918759071081 1.633346338497039 -0.093995377412327
-0.741328373835965 1.632734149218880 -0.156880336945785
-0.736434191369820 1.621203266042813 -0.218633602068835
-0.735845778722240 1.618407410491811 -0.281582037072416
-0.737584015422524 1.620728713185588 -0.346127517613052
-2.224690940955131 4.886157875033904 -1.239480309434696
-1.878640062294650 4.122299383649009 -1.213861321530822
nan nan nan
nan nan nan
nan nan nan
-0.753947002224004 1.675261615308127 0.290968104974829
-0.762023997703970 1.692419271200410 0.227895672167626
-0.752319985009593 1.669310361058917 0.160192255170196
-0.744066386603087 1.649459293629415 0.094832752712214
-0.745262247474061 1.651341309440300 0.031623760464358
-0.735537852484299 1.638175078709782 -0.031344521961361
-0.736850247426707 1.639566157056129 -0.094204721237299
-0.737259272867037 1.638945947472050 -0.157228959916775
-0.730770649285737 1.623764024170048 -0.218633602068835
-0.731814648468057 1.624568278668268 -0.282207774932576
-0.728694241364081 1.616134530891449 -0.344601045650040
-2.209224142523007 4.897446463387830 -1.240380113652072
-1.868214030267647 4.137635426413284 -1.216449511981847
nan nan nan
nan nan nan
nan nan nan
-0.747290251738110 1.676078999754178 0.290655236044749
-0.756111709468836 1.695068920549067 0.227895672167626
-0.741614720798306 1.661010545913697 0.159146386257224
-0.739933976599515 1.655693422756594 0.095042096537186
-0.741125886075009 1.657583765184878 0.031693570090107
-0.729002361516328 1.638905508190644 -0.031309617148487
-0.731122604356362 1.642128255617013 -0.094204721237299
-0.729100753019920 1.636049911686751 -0.156706025460289
-0.726714921393224 1.629931095343731 -0.219121079442455
-0.727749453604565 1.630720680196206 -0.282833512792737
-0.719845567242671 1.611498121690045 -0.343074573687028
-2.193705622666571 4.908686566340847 -1.241279917869447
-1.854548439386248 4.145894962684841 -1.216967150072052
nan nan nan
nan nan nan
nan nan nan
-0.742233191663738 1.680484290637677 0.290968104974829
-0.753399578126007 1.704960794802962 0.228870626914867
-0.735812193814844 1.663589144943743 0.159146386257224
-0.734150020079198 1.658266187288256 0.095042096537186
-0.728856598447166 1.645533712407911 0.031414331587110
-0.724889730262255 1.645100060949374 -0.031379426774236
-0.726998021794006 1.648325168353022 -0.094414065062271
-0.720166808541016 1.631294280192589 -0.156008779518308
-0.721020972712555 1.632457873714545 -0.219121079442455
-0.717260356996913 1.622410903012432 -0.280956299212255
-0.717393827762760 1.621182351009532 -0.344601045650040
-2.175768850442163 4.914532203723233 -1.240830015760759
-1.839282593279694 4.150577083594214 -1.216449511981847
nan nan nan
nan nan nan
nan nan nan
-0.736362684857760 1.683064929893208 0.290968104974829
-0.737095570378086 1.683939641583830 0.225702023986333
-0.731599826495825 1.669797303837376 0.159495009228214
-0.731565739838526 1.668135128512342 0.095460784187130
-0.721501266369284 1.644405498522348 0.031344521961361
-0.721542652395190 1.653118552804548 -0.031484141212859
-0.716442259674151 1.639871540230194 -0.093786033587355
-0.712871564498390 1.630147247396162 -0.155660156547317
-0.716909602887215 1.638602057566527 -0.219608556816076
-0.708423038263139 1.617666841649841 -0.279704823491933
-0.708577737256779 1.616484279896816 -0.343074573687028
-2.159383344967253 4.923881775080719 -1.241279917869447
-1.827112680399622 4.162278864127922 -1.218002426252463
nan nan nan
nan nan nan
nan nan nan
-0.734706302358034 1.694559357234690 0.292532449625232
-0.728347513431973 1.679090123855379 0.224727069239092
-0.727645569747884 1.675869308171626 0.159843632199205
-0.720963809875179 1.659687300024704 0.094832752712214
-0.717639007519197 1.650456723049047 0.031414331587110
-0.715262891952213 1.653666816782031 -0.031449236399985
-0.707826201908928 1.634906910684454 -0.093367345937412
-0.709046342913382 1.636158471638480 -0.156008779518308
-0.705154685602375 1.626400191410204 -0.217658647321593
-0.704627596008409 1.623631339718297 -0.280330561352094
-0.704777820886731 1.622426511071764 -0.343837809668534
-2.143043291569495 4.931015475128120 -1.241279917869447
-1.822547619116888 4.189572777052071 -1.224214083334923
nan nan nan
nan nan nan
nan nan nan
-0.723815691623264 1.686349423553644 0.290655236044749
-0.722481957772550 1.681622301542279 0.224727069239092
-0.721791261109767 1.678399055240123 0.159843632199205
-0.713587294741298 1.658524519949691 0.094623408887242
-0.711873466320704 1.652951695519104 0.031414331587110
-0.702399172742668 1.639610322030530 -0.031135093084114
-0.703689248345670 1.641038952888024 -0.093576689762384
-0.704116608705223 1.640454401508910 -0.156183091003803
-0.696340054824469 1.621555643639588 -0.216683692574352
-0.702076110410668 1.633340347750210 -0.281582037072416
-0.696006493854226 1.617663101078529 -0.342311337705521
-2.126588282270471 4.940255998618595 -1.241729819978135
-1.819378850819233 4.222521662654300 -1.231978654687999
nan nan nan
nan nan nan
nan nan nan
-0.711261581893970 1.672380169969174 0.287839415674025
-0.718162062236647 1.687787208257616 0.225214546612713
-0.712805243135629 1.673576144995985 0.159146386257224
-0.707793616360557 1.661005300151027 0.094623408887242
-0.709237470062760 1.662783978526811 0.031553950838609
-0.695890563438809 1.640211297975450 -0.031100188271239
-0.698737378441307 1.645323639422868 -0.093681361674869
-0.696047718309519 1.637401444209629 -0.155660156547317
-0.693783178395211 1.631283425595311 -0.217658647321593
-0.694822921523383 1.632146030739488 -0.280956299212255
-0.688816301246888 1.616470537110181 -0.341548101724015
-2.109330614773767 4.947649079285555 -1.241729819978135
-1.794771201289831 4.205748012188549 -1.225249359515333
nan nan nan
nan nan nan
nan nan nan
-0.708959437923914 1.684078970502479 0.289403760324427
-0.710724508386951 1.686625156200789 0.224727069239092
-0.705410378876018 1.672382572185348 0.158797763286233
-0.703544391865705 1.667146075689632 0.094832752712214
-0.698760173681392 1.654197007801600 0.031344521961361
-0.691710100703147 1.646317578056052 -0.031169997896988
-0.693764160561400 1.649593728596374 -0.093786033587355
-0.687235705925211 1.632475905132507 -0.154962910605336
-0.689625773012398 1.637354134412440 -0.218146124695214
-0.686051852340369 1.627280574337350 -0.279704823491933
-0.683169569574231 1.618865106615274 -0.341548101724015
-2.096595174544293 4.965753574136844 -1.244429232630261
-1.780079466678666 4.211987309966196 -1.225249359515333
nan nan nan
nan nan nan
nan nan nan
-0.705652135733908 1.691890177639325 0.290342367114668
-0.700245993770251 1.678103825757268 0.223264637118230
-0.701104201877987 1.678511640069945 0.159146386257224
-0.697720679824020 1.669591747092364 0.094832752712214
-0.691438302401091 1.652936467726761 0.031274712335612
-0.685191014423291 1.646875793656651 -0.031135093084114
-0.684930340723964 1.644630343593465 -0.093367345937412
-0.682299743646989 1.636703852913285 -0.155137222090832
-0.683906139049685 1.639751402271275 -0.218146124695214
-0.677323253981837 1.622373860344846 -0.278453347771611
-0.676000514782676 1.617617068188395 -0.340784865742509
-2.075490102595577 4.964052212866431 -1.242179722086823
-1.768349339432965 4.225303592363430 -1.227319911876153
nan nan nan
nan nan nan
nan nan nan
-0.701707449594202 1.699942954756132 0.291280973904910
-0.689835684984014 1.669530026558654 0.221802204997368
-0.693717850468478 1.677266470873571 0.158797763286233
-0.688833771060692 1.664635101205283 0.094414065062271
-0.682603263719392 1.647950056991497 0.031135093084114
-0.683246680610693 1.658502240368847 -0.031309617148487
-0.673855406885578 1.634086201401475 -0.092634642550011
-0.675822219251951 1.637233894195356 -0.154962910605336
-0.675147208009705 1.634789567638639 -0.217171169947973
-0.673165325179274 1.628379350439945 -0.279079085631772
-0.673352545986469 1.627223185949548 -0.342311337705521
-2.058895118438474 4.973067313876010 -1.242629624195510
-1.750631107615138 4.224311864914505 -1.225249359515333
nan nan nan
nan nan nan
nan nan nan
-0.691580450141380 1.691290023766571 0.289403760324427
-0.690016954566626 1.686626097767678 0.223752114491851
-0.690879108059638 1.687052874120432 0.159495009228214
-0.678475550516284 1.655940550640504 0.093786033587355
-0.681399466266277 1.661423572817915 0.031344521961361
-0.671411318224910 1.646064384330275 -0.031030378645490
-0.671922119584771 1.645673798738719 -0.093158002112440
-0.673118176116975 1.646960180649375 -0.155660156547317
-0.666431287151705 1.629786653534198 -0.216196215200732
-0.667477119341615 1.630719215290712 -0.279079085631772
-0.661713695847646 1.615030255746872 -0.339258393779497
-2.039305890230066 4.974814534388893 -1.241279917869447
-1.742475126552011 4.246482131503383 -1.229908102327179
nan nan nan
nan nan nan
nan nan nan
-0.683895021071831 1.690151133447772 0.288778022464266
-0.681144388728195 1.681664847346289 0.222777159744610
-0.677499799851364 1.670990233670745 0.157751894373261
-0.674192648431270 1.662000343509695 0.093995377412327
-0.672586528702912 1.656380878739620 0.031204902709863
-0.662666288913887 1.640981154834253 -0.030890759393992
-0.665425042821244 1.646157522877153 -0.093053330199954
-0.662881135253101 1.638218246322780 -0.154614287634346
-0.662228036789994 1.635783055500213 -0.216683692574352
-0.661780780505900 1.633039210342463 -0.279079085631772
-0.654596178957916 1.613691690082405 -0.338495157797990
-2.029989452642114 5.001765338144076 -1.246228841065012
-1.720370303408532 4.234640743874866 -1.224731721425128
nan nan nan
nan nan nan
nan nan nan
-0.681960875818661 1.701577701343931 0.290342367114668
-0.676747748355245 1.687717211771146 0.223264637118230
-0.671662827866748 1.673344969061577 0.157751894373261
-0.671364302455819 1.671757146749021 0.094414065062271
-0.663817135019251 1.651296993099208 0.031065283458365
-0.657676457017826 1.645141112846507 -0.030925664206866
-0.661900951011960 1.654033152558336 -0.093367345937412
-0.655676892225763 1.636823117415910 -0.154265664663355
-0.656514053832489 1.638084696983881 -0.216683692574352
-0.651663308272506 1.624339267142980 -0.277201872051289
-0.651885891742128 1.623254162305535 -0.340021629761003
-2.008884962627256 4.999779658361476 -1.243979330521574
-1.708461647191665 4.247789422877360 -1.226802273785948
nan nan nan
nan nan nan
nan nan nan
-0.675288639758766 1.702111671775842 0.290029498184588
-0.664993420038827 1.675308790235964 0.221314727623748
-0.667289092151893 1.679382473979821 0.158100517344252
-0.667000355327469 1.677802412825655 0.094623408887242
-0.658048988632184 1.653604087054641 0.031065283458365
-0.654137273442180 1.653005003953330 -0.031030378645490
-0.651709880127318 1.645192284110725 -0.092739314462496
-0.648490484067978 1.635397699750721 -0.153917041692364
-0.650792071458425 1.640366378922464 -0.216683692574352
-0.645989335954971 1.626604100561571 -0.277201872051289
-0.649116786400887 1.632817286722953 -0.341548101724015
-1.969093282052431 4.950627841724112 -1.230032365152254
-1.694338295648534 4.255522009555482 -1.227319911876153
nan nan nan
nan nan nan
nan nan nan
-0.674819408736046 1.719285762027184 0.292532449625232
-0.656237742845023 1.670229448116156 0.220339772876507
-0.661422887988891 1.681701516220972 0.158100517344252
-0.655288874840891 1.665252134186805 0.093786033587355
-0.653738605753105 1.659612135809639 0.031135093084114
-0.647633906495367 1.653416343139090 -0.030995473832616
-0.643775882882682 1.641878855693748 -0.092425298725039
-0.645689721249079 1.645069969920006 -0.154614287634346
-0.639257325558081 1.627846268578374 -0.214733783079870
-0.638862103087734 1.625172254019311 -0.276576134191128
-0.641975440846286 1.631419384655913 -0.340784865742509
-1.968220050816766 4.999176232662670 -1.240380113652072
-1.680181768934874 4.263207732943762 -1.227837549966358
nan nan nan
nan nan nan
nan nan nan
-0.665237325466311 1.712424264805246 0.290968104974829
-0.650403556033309 1.672509969712574 0.220339772876507
-0.658439687990764 1.691426749124512 0.158797763286233
-0.648022353440687 1.663807210158168 0.093576689762384
-0.646488711881013 1.658157801167935 0.031065283458365
-0.636798765716056 1.642615505638019 -0.030751140142494
-0.638763316966189 1.645978016084106 -0.092529970637525
-0.639943421667692 1.647313825330065 -0.154614287634346
-0.632132887018287 1.626367281287087 -0.214246305706249
-0.633185301092703 1.627392397818066 -0.276576134191128
-0.632001717158157 1.622673983786162 -0.338495157797990
-1.958540897037915 5.025989369727523 -1.245329036847637
-1.665290160586171 4.269046688892908 -1.227837549966358
nan nan nan
nan nan nan
nan nan nan
-0.658845865273279 1.712777177443720 0.290655236044749
-0.647707072086863 1.682067578935368 0.221314727623748
-0.647094254970333 1.678728457891941 0.157403271402271
-0.643938770184552 1.669673932286528 0.093786033587355
-0.642426926965134 1.664023512300466 0.031135093084114
-0.629198274859109 1.639117545359666 -0.030646425703870
-0.633301545031231 1.648087181430301 -0.092529970637525
-0.630900679079129 1.640129112614623 -0.153742730206869
-0.628162203974154 1.632159810772995 -0.214733783079870
-0.629205520447338 1.633169781489314 -0.277201872051289
-0.625204370124806 1.621097358138304 -0.337731921816484
-1.937654105595279 5.021547986840461 -1.242629624195510
-1.654604782866731 4.283555942185520 -1.230425740417384
nan nan nan
nan nan nan
nan nan nan
-0.653565902315143 1.716912686544761 0.290968104974829
-0.640417888435780 1.680608298717587 0.220827250250127
-0.639810234287729 1.677253916825598 0.157054648431280
-0.642379632665048 1.683107361951559 0.094414065062271
-0.633759713567734 1.658783863576095 0.030995473832616
-0.625603170855860 1.646911970930757 -0.030751140142494
-0.630384358069720 1.657755141154322 -0.092948658287468
-0.623754093468491 1.638597289985129 -0.153394107235878
-0.623874154534414 1.638052761162711 -0.215221260453490
-0.620685958397275 1.627973070972993 -0.275950396330967
-0.620941970012055 1.626938258823875 -0.338495157797990
-1.204068482489161 3.153143668113928 -0.779230452247148
-1.631364763922200 4.267651448419553 -1.224214083334923
nan nan nan
nan nan nan
nan nan nan
-0.650655353710605 1.726464400833703 0.292219580695151
-0.631045650902977 1.673546374693453 0.219608556816076
-0.633951627586376 1.679477052920555 0.157054648431280
-0.635382753823305 1.681491667133833 0.094204721237299
-0.623722605325156 1.649763113614317 0.030786044955368
-0.619850563865178 1.649085699973157 -0.030751140142494
-0.619670271878823 1.646860337676360 -0.092215954900067
-0.619435136217185 1.644493625687900 -0.153742730206869
-0.618152482490606 1.640220508785179 -0.215221260453490
-0.612210377126446 1.622736872433125 -0.274698920610645
-0.615259112685437 1.629095838925642 -0.338495157797990
nan nan nan
-1.621242383631895 4.285968278511658 -1.227837549966358
nan nan nan
nan nan nan
nan nan nan
-0.642943468014391 1.725135567936141 0.291593842834990
-0.623812247905386 1.672019207995890 0.219121079442455
-0.630873688377330 1.689145561855115 0.157751894373261
-0.625020740958603 1.672583772641799 0.093576689762384
-0.622163867360883 1.663167881710214 0.030995473832616
-0.614090404190986 1.651239335426724 -0.030751140142494
-0.613221039177110 1.647141605526655 -0.092111282987581
-0.614386803198634 1.648512784400544 -0.153917041692364
-0.611036136260321 1.638648297404988 -0.214733783079870
-0.609305528951764 1.632266568656478 -0.275950396330967
-0.609568758620694 1.631233569008724 -0.338495157797990
nan nan nan
nan nan nan
nan nan nan
nan nan nan
nan nan nan
-0.634484330940142 1.719845034777753 0.290342367114668
-0.619639651198452 1.677802963531720 0.219608556816076
-0.623887001554633 1.687490805735851 0.157403271402271
-0.616990099148539 1.667046731257134 0.093158002112440
-0.615256342544352 1.661471406992101 0.030925664206866
-0.606538864495584 1.647636914628943 -0.030646425703870
-0.607064917774850 1.647292010884983 -0.092006611075095
-0.607537559790661 1.646802615438482 -0.153568418721374
-0.602849225621606 1.633216450589845 -0.213758828332629
-0.603889387783923 1.634278123847572 -0.275950396330967
-0.602793795689840 1.629563373687559 -0.337731921816484
-1.155978555446575 3.123340674218207 -0.768882703747331
-1.406786591221691 3.796927284974440 -1.084969437069767
nan nan nan
nan nan nan
nan nan nan
-0.626445371222381 1.716482350734820 0.289403760324427
-0.615822910955259 1.685549324947603 0.220339772876507
-0.615255249001789 1.682173653390216 0.156706025460289
-0.613914080353478 1.676692251153102 0.093576689762384
-0.612204457381328 1.671119579960119 0.031065283458365
-0.599415315008976 1.645986133198546 -0.030576616078121
-0.601311097138546 1.649401027032696 -0.092006611075095
-0.600419302825348 1.645170007927732 -0.153219795750383
-0.597825458142456 1.637175501559272 -0.214002567019439
-0.598181013437239 1.636376134612082 -0.275950396330967
-0.594403119982711 1.624282865280442 -0.336205449853472
-1.143728973621649 3.123696896455854 -0.767982899529955
-1.173459130871743 3.201432748814582 -0.913631229211898
nan nan nan
nan nan nan
nan nan nan
-0.620078785280176 1.716692388448869 0.289090891394347
-0.608586079205021 1.683954854608630 0.219852295502886
-0.608023935566999 1.680563969762656 0.156357402489299
-0.609124224789659 1.682687094702503 0.093786033587355
-0.600916937927427 1.658205974283030 0.030786044955368
-0.593666099340463 1.648068455205393 -0.030576616078121
-0.595549949716283 1.651489945749416 -0.092006611075095
-0.592643329405859 1.641633805896349 -0.152696861293897
-0.592781388560648 1.641119357593266 -0.214246305706249
-0.587763244487778 1.625450601835120 -0.273760313820404
-0.590066196669794 1.630039873228349 -0.336968685834978
nan nan nan
-1.146472564271418 3.161921718390511 -0.901207915046977
nan nan nan
nan nan nan
nan nan nan
-0.615111162016862 1.722674238820466 0.289716629254508
-0.598695152767383 1.674853420937134 0.218389863382024
-0.603496563524682 1.686427917047846 0.156706025460289
-0.603540884129018 1.684697771438163 0.093786033587355
-0.593775567977716 1.656528625698909 0.030716235329619
-0.589251909512852 1.653898117698619 -0.030646425703870
-0.587768639406492 1.647915196389210 -0.091692595337638
-0.586909347452055 1.643692515777935 -0.152696861293897
-0.590388503013069 1.652525415736610 -0.215464999140301
-0.580755300401421 1.623772393062117 -0.273134575960243
-0.583049093317925 1.628392965555296 -0.336205449853472
-1.118607604327812 3.122432610086440 -0.765733388986516
-1.134124072538139 3.162267510557180 -0.900172638866567
nan nan nan
nan nan nan
nan nan nan
-0.607778621138466 1.721085588865309 0.289090891394347
-0.591229824987471 1.673293113658551 0.217902386008404
-0.597311442646529 1.688628515117508 0.156706025460289
-0.593361911591422 1.675602347967737 0.093158002112440
-0.589035780817313 1.662463553992371 0.030786044955368
-0.583850333072378 1.657932882998885 -0.030681330516744
-0.580396641579482 1.646291150779815 -0.091483251512666
-0.582207183325492 1.649590214395782 -0.153045484264888
-0.577056682655940 1.634088310999170 -0.212783873585388
-0.574799976247280 1.625890061080744 -0.273134575960243
-0.578386868043281 1.634220528460505 -0.336968685834978
nan nan nan
-0.639045947883489 1.802610127840169 -0.512461709302991
nan nan nan
nan nan nan
-0.662138440333253 1.898201822990773 0.390776822531164
-0.601767208496625 1.723196646726949 0.289090891394347
-0.586040133483009 1.677220686203124 0.218146124695214
-0.594044817869380 1.698225828479357 0.157403271402271
-0.583548615709618 1.666353269159096 0.092529970637525
-0.585874141436172 1.672058340396588 0.030925664206866
-0.574113711586899 1.648630009850114 -0.030471901639497
-0.574646477069184 1.648307083369069 -0.091483251512666
-0.575788948063238 1.649731339285668 -0.152871172779392
-0.570694667991390 1.634218555451960 -0.212540134898577
-0.570424887240105 1.631615989929637 -0.273760313820404
-0.567490366758868 1.621405242664917 -0.333915741908953
-0.629272667289813 1.796920664537464 -0.439554360187912
-0.618049523797924 1.762899442319934 -0.500556033228275
nan nan nan
nan nan nan
-0.653608634604828 1.892849681657945 0.389250350568151
-0.592478258954586 1.713876838032061 0.287213677813864
-0.580768105974413 1.679053505807171 0.218146124695214
-0.582187306645496 1.681256629918386 0.155660156547317
-0.580927532122785 1.675726633238336 0.092948658287468
-0.579307681843796 1.670112129766992 0.030855854581117
-0.566976471761894 1.644753937344410 -0.030367187200873
-0.571420026921925 1.655768224890777 -0.091797267250123
-0.569952700393920 1.649648928670786 -0.152696861293897
-0.564909235693885 1.634127227477484 -0.212296396211767
-0.564650155123640 1.631533235089559 -0.273447444890324
-0.562393779888565 1.623180061991905 -0.333915741908953
-0.620432851469660 1.789682526398090 -0.437304849644474
-0.610607938846594 1.759357221341943 -0.499003118957660
nan nan nan
nan nan nan
-0.645094440723807 1.889545788293921 0.388105496595892
-0.586492102764085 1.715934531580968 0.287213677813864
-0.574903577240085 1.681070535449662 0.218146124695214
-0.576315078926613 1.683278600073522 0.155660156547317
-0.577665041564978 1.685301646135295 0.093367345937412
-0.570879466567584 1.664557943581024 0.030716235329619
-0.561876848859254 1.648615819260868 -0.030402092013748
-0.564991868052171 1.655862511501231 -0.091692595337638
-0.562902771650590 1.647857543584393 -0.152348238322906
-0.561769715683091 1.643602785773211 -0.213271350959008
-0.555753937662701 1.624149359072721 -0.271883100239921
-0.556724397812645 1.625133293667181 -0.333915741908953
-0.612286290546293 1.786306975696866 -0.435955143318410
-0.602581807379640 1.755996144435375 -0.497450204687045
nan nan nan
nan nan nan
-0.631562643739420 1.873405014435498 0.384289316688361
-0.581162476568024 1.721917142784100 0.287839415674025
-0.565903973477303 1.675742634101677 0.217171169947973
-0.568571266286759 1.681704207847278 0.155311533576327
-0.572175205032336 1.691390829429827 0.093576689762384
-0.560635076839042 1.655373566714704 0.030506806452372
-0.558731599398615 1.660237353628293 -0.030576616078121
-0.556078842714208 1.650448846363027 -0.091273907687694
-0.556571318887045 1.650006782189771 -0.152348238322906
-0.554184997795852 1.641985996091321 -0.212783873585388
-0.549513570268228 1.626271322963974 -0.271883100239921
-0.550480245235856 1.627258976595448 -0.333915741908953
-0.599174953382454 1.770186145530481 -0.431456122231533
-0.590874717169900 1.743659714652120 -0.493309099965405
nan nan nan
nan nan nan
-0.626260741517726 1.879323286535898 0.385052552669867
-0.577971602010524 1.733405402893238 0.289403760324427
-0.558793963123493 1.673941899872598 0.216683692574352
-0.565223698618090 1.691237248653688 0.156008779518308
-0.561200391197456 1.678224520281136 0.092739314462496
-0.556123016427039 1.661112958576057 0.030576616078121
-0.550408077849897 1.654587724196502 -0.030436996826622
-0.549052124498341 1.648590006579062 -0.091064563862722
-0.550808329554727 1.651939526245752 -0.152348238322906
-0.548450020770165 1.643910459197582 -0.212783873585388
-0.545085106703470 1.631926824219582 -0.272508838100082
-0.547287196861593 1.636618234440780 -0.335442213871966
-0.586808757057128 1.753786508222487 -0.426957101144656
-0.586625484058275 1.751207048957851 -0.494862014236020
nan nan nan
nan nan nan
-0.620353592528481 1.881281465363285 0.385052552669867
-0.566013963876560 1.714478874664415 0.285962202093542
-0.553532370663352 1.675689139428955 0.216683692574352
-0.558656549097705 1.689221351929317 0.155660156547317
-0.552160601263147 1.668602463727985 0.092111282987581
-0.553417273450053 1.670444801343129 0.030716235329619
-0.545207329608513 1.656308714269574 -0.030436996826622
-0.545120501682928 1.654100575061979 -0.091273907687694
-0.548112996819117 1.661230032976798 -0.153045484264888
-0.538926606073917 1.632430187375782 -0.211077702777715
-0.541195427998382 1.637382365890346 -0.273134575960243
-0.538442282501273 1.627146372091055 -0.333152505927447
-0.583746329518914 1.763021243991075 -0.428756709579407
-0.580513151855018 1.751207617130636 -0.494344376145815
nan nan nan
nan nan nan
-0.614999531596669 1.887168713539729 0.385815788651374
-0.558501498873775 1.712785794527308 0.285336464233381
-0.548911877114325 1.681385272359151 0.217171169947973
-0.552756662668092 1.691161135888505 0.155660156547317
-0.550057723631446 1.681909605248278 0.092739314462496
-0.547582961332777 1.672366411210535 0.030716235329619
-0.536947996928979 1.650595322150777 -0.030297377575124
-0.540580318008357 1.659791473190128 -0.091483251512666
-0.536134221028957 1.644190892217997 -0.151302369409935
-0.534456544697642 1.638075815210453 -0.211565180151336
-0.535476599777873 1.639261514983301 -0.273134575960243
-0.530318151162153 1.621551982560219 -0.331626033964435
-0.575164383870685 1.757639771201371 -0.426957101144656
-0.570186521793035 1.740372465689727 -0.490720909514379
nan nan nan
nan nan nan
-0.604469806690503 1.878197007296409 0.383526080706855
-0.554336856022476 1.720365436111042 0.286275071023622
-0.543963889274171 1.687164485286438 0.217658647321593
-0.544106361878874 1.685591517331426 0.154962910605336
-0.543889522132249 1.683914370527130 0.092739314462496
-0.537758051142509 1.662946064426471 0.030506806452372
-0.530894656070335 1.652552248211242 -0.030297377575124
-0.534493247173606 1.661761650604106 -0.091483251512666
-0.531325797660743 1.649937839207906 -0.151650992380925
-0.530275543865675 1.645691978388866 -0.212296396211767
-0.527038853684115 1.633693247372732 -0.271883100239921
-0.526784980884265 1.630957691575421 -0.333152505927447
-0.563924194227512 1.744901603239253 -0.423357884275154
-0.563803907997333 1.742450614018175 -0.490720909514379
nan nan nan
nan nan nan
-0.593150510480558 1.865328031233329 0.380473136780830
-0.550423427527593 1.729915181546853 0.287526546743944
-0.534456011654483 1.677704374477000 0.216196215200732
-0.538219234581258 1.687480533773201 0.154962910605336
-0.539222716067289 1.689608063841900 0.092948658287468
-0.531950009903204 1.664813059092239 0.030506806452372
-0.525122937834462 1.654395348479974 -0.030297377575124
-0.526269729261258 1.656003447240305 -0.091064563862722
-0.524355011517915 1.647985259311195 -0.151302369409935
-0.523323349630783 1.643749875629450 -0.211808918838146
-0.520133143362309 1.631758853670118 -0.271257362379760
-0.519894878286538 1.629045944335589 -0.332389269945941
-0.541824168583224 1.696737007477404 -0.411210527340585
-0.556541564764884 1.740727855580925 -0.489685633333969
nan nan nan
nan nan nan
-0.590754493099374 1.880498191855789 0.383144462716102
-0.545276487478291 1.733615304209032 0.287839415674025
-0.525020850012299 1.668198582140798 0.214733783079870
-0.532325549252121 1.689348988797208 0.154962910605336
-0.528516899076241 1.676241450071324 0.092111282987581
-0.526135487020900 1.666659768536266 0.030506806452372
-0.521738115247953 1.663850632815846 -0.030436996826622
-0.518092953224333 1.650208173820778 -0.090645876212779
-0.522184062504511 1.661209745681199 -0.152348238322906
-0.516391189719095 1.641779335829834 -0.211321441464526
-0.515620772312090 1.637332830845400 -0.271883100239921
-0.514205279377967 1.630850791422879 -0.332389269945941
-0.525930679104154 1.667024438445488 -0.403562191492894
-0.551625667200995 1.746344213564565 -0.490720909514379
nan nan nan
nan nan nan
-0.577204418828031 1.860048269321583 0.378565046827065
-0.537161463296736 1.729942625699113 0.286900808883783
-0.521551848152813 1.677603472252433 0.215708737827111
-0.526425377704156 1.691196859636914 0.154962910605336
-0.521474635251889 1.674262296764477 0.091901939162609
-0.519123902191911 1.664668124100783 0.030436996826622
-0.513560376395411 1.658021051949786 -0.030297377575124
-0.513512704323542 1.655821859829799 -0.090855220037750
-0.515200524451743 1.659216844338774 -0.151999615351916
-0.508890184517801 1.637884775271353 -0.210590225404095
-0.509902272810713 1.639122708032074 -0.271883100239921
-0.506174124959788 1.625138013872084 -0.330862797982929
-0.511990838697569 1.642803409851484 -0.397263561971266
-0.545526427608111 1.748259107153889 -0.490720909514379
nan nan nan
nan nan nan
-0.568406879749360 1.854543483479986 0.377038574864053
-0.533739901931647 1.739268230596831 0.288152284604105
-0.518023556397831 1.687004378295826 0.216683692574352
-0.520518791829093 1.693024123776594 0.154962910605336
-0.517976291019787 1.683708247828680 0.092320626812553
-0.514487279797924 1.670292242000247 0.030506806452372
-0.507769674078394 1.659803610972814 -0.030297377575124
-0.508899562962830 1.661423630512318 -0.091064563862722
-0.505900553382520 1.649576186941151 -0.150953746438944
-0.502005054469912 1.635855666174954 -0.210102748030474
-0.503017197686635 1.637116105285835 -0.271257362379760
-0.499343698960633 1.623142060780504 -0.330099562001422
-0.505679932170211 1.642718090710271 -0.396813659862578
-0.537144504910110 1.742768088214428 -0.488650357153559
nan nan nan
nan nan nan
-0.563067361806762 1.860274425397981 0.377801810845559
-0.530530104488494 1.750573072729281 0.289716629254508
-0.512131656200468 1.688802340148103 0.216683692574352
-0.509974989683686 1.679579188567345 0.153568418721374
-0.512095896752856 1.685506064775154 0.092320626812553
-0.506325802662094 1.664425431042224 0.030367187200873
-0.500816165428444 1.657737452849942 -0.030227567949375
-0.503097011825409 1.663189899530669 -0.091064563862722
-0.498984319516582 1.647518359734354 -0.150605123467953
-0.498019027809555 1.643297321705765 -0.210833964090905
-0.496152358400920 1.635081453953621 -0.270631624519599
-0.493674833656364 1.624875206833076 -0.330099562001422
