# This PCD file was generated using the MATLABÂ® pcwrite function
# from Computer Vision ToolboxÂ®.
# .PCD v.7 - Point Cloud Data file format
VERSION .7
FIELDS x y z
SIZE 8 8 8
TYPE F F F
COUNT 1 1 1
WIDTH 882
HEIGHT 1
VIEWPOINT 0 0 0 1 0 0 0
POINTS 882
DATA ascii
3.644651714530541 3.100745045804612 -1.282189549437888
29.067463852912571 24.442415219693142 10.176247215340910
25.132711418895944 21.141227312757955 7.582200237714314
15.764529844334254 13.270265012477614 4.005462430944429
nan nan nan
25.456745323795975 21.451761686066735 4.087497777808646
16.375116583556753 13.808678412247357 1.874022780560146
15.728796323299328 13.268352602605471 1.078434714342101
16.846585951797266 14.221355457746737 0.384825561942101
13.678155856983116 11.501765912149207 -0.311944312660005
9.838520563762449 8.278935792965207 -0.673877772584145
9.351394623804330 7.874605470815268 -1.069575274999261
8.375999861287164 7.055745686741565 -1.344706335132397
6.390254764024728 5.386815210313335 -1.323748443170434
5.139661709496900 4.335668312946282 -1.307041618329332
4.330935986520969 3.654744925784031 -1.308315332063919
3.645660202297932 3.078641008834576 -1.278566082806452
21.947359149550422 18.318321778234147 7.660008458854204
20.704418896799375 17.293169570352408 6.227994890564246
21.592165756937430 18.047450611515647 5.470112279454787
16.171261856845806 13.521273659963512 3.338624352888607
17.164090782225522 14.361590528147897 2.747909955099265
19.292049244737562 16.153554628424679 2.201379750320350
15.874537774765331 13.296729074375429 1.085238388653683
19.691456830260623 16.505532008426037 0.448491940625312
21.623428641467729 18.054357835891452 -0.491704098964026
10.311835156362067 8.615918297824971 -0.704232627205052
9.589757011115740 8.018281444435214 -1.093630259997615
8.440167436268325 7.059578670013275 -1.351043540989465
6.381753349734589 5.341654076997662 -1.318116802428985
5.163794948387774 4.325264987147362 -1.309331326273850
4.364578781063984 3.657127041256618 -1.314613961585547
3.635660007983274 3.048518972608641 -1.271319149543582
22.107628424402193 18.328049760050188 7.694690210897941
25.147690364108829 20.855781477911101 7.542608852149794
21.769848256636539 18.067258740217305 5.499115246752021
26.225079727070014 21.772480672167841 5.398553388538367
17.371386820454806 14.432249426993222 2.773015039840726
19.112381723629788 15.889957803122165 2.174535781554071
16.479805089064243 13.706109214383844 1.123338964798546
13.642438886930817 11.354355103146570 0.309815119074657
12.044704689229127 9.985510098660464 -0.273095255930612
10.225025204153852 8.482951911408797 -0.696277561856125
9.462860317500725 7.856217998587842 -1.076024799962588
8.490719376782215 7.051634731914744 -1.355187098665240
6.401879515323415 5.320607660123275 -1.318429671359066
5.181880345298993 4.309724390834401 -1.310094562255357
4.371325724546346 3.636884089998006 -1.312814353150796
3.653702382154657 3.041989972328189 -1.273907339994607
22.002928614100544 18.112030315520929 7.636197106704772
25.053355166981252 20.630369831216765 7.492669718085455
15.851114964571558 13.062004998735670 3.992487419258823
21.116948536737727 17.407469036268431 4.334486157334717
24.664732402664292 20.346500640733051 3.925899028453421
16.300638430358102 13.456333423226456 1.849270549619811
17.533184240950906 14.478958041772669 1.191689723651831
14.839625558978323 12.263323938751528 0.336028633543457
12.178296955329071 10.024742047519165 -0.275329163954585
12.215460595894200 10.062489180351685 -0.829420234538174
9.667024298336729 7.968879871700811 -1.096070620794549
8.409607179391127 6.934810679617432 -1.338369129275330
6.429554446147178 5.305772267409361 -1.320306884939549
5.186295886144336 4.282859262512914 -1.307423236320085
4.364463027681390 3.605468531708723 -1.306965625737856
3.688121801685518 3.048911860852037 -1.282189549437888
35.478841208007999 28.997756410935565 12.277857861573379
25.046765666986413 20.478649356321540 7.469274808433694
16.312945937008163 13.347237692444812 4.097050748725170
nan nan nan
24.816997056891751 20.326947048432721 3.938817178854367
16.325937755479917 13.381669352433125 1.846830188822877
17.031354560506404 13.969811209810883 1.154426522806855
12.597507645015162 10.336667712902315 0.284439320114847
11.857100073366643 9.691108501874231 -0.267301056993434
12.652471040910925 10.348554350852925 -0.856634931784505
9.847419297110207 8.060019302612105 -1.113327457858585
8.476768845662557 6.940625875524497 -1.345193812506018
6.374693288405747 5.223202240484284 -1.305289176295686
5.178441866527506 4.246057422564518 -1.301698966458789
4.384555472179481 3.596391113090029 -1.309215136281294
3.691275848055539 3.029890918109237 -1.279601358986862
25.515078168957849 20.698596096887041 8.803471000117142
24.331359736405840 19.752414819968095 7.235325711916074
21.872518650829605 17.768975928174974 5.477744639269849
nan nan nan
25.049509247242415 20.371706896527431 3.964409740969447
16.632160950202962 13.535881664688290 1.876114518386090
20.170880699261843 16.421678685251639 1.363142316303715
14.681478012815703 11.961126242826916 0.330548577922150
13.775878228535856 11.179392475325349 -0.309675499823159
11.345866144938366 9.213961047664885 -0.765989055571726
9.612642293541793 7.811982485614093 -1.083694505324382
8.439332299030706 6.860905403919073 -1.335444265033606
6.503214694639036 5.290675571040092 -1.327815739261480
5.196276814847324 4.230434430965044 -1.302462202440295
4.377439183778172 3.565066366360816 -1.303366408868354
3.659899543227937 2.982814504121681 -1.265107492461121
25.562516740356546 20.596902098730414 8.796224066854270
25.460706997277605 20.522199032869736 7.549807285888797
21.935938801341461 17.693750919839299 5.478126257260602
21.090539284143301 17.017919864027281 4.292248851773854
19.789028329518583 15.979141283404257 3.123023794100309
16.983047818390240 13.723179032733503 1.910279569543172
19.515487248851272 15.780784146295662 1.315307252297664
20.144428080937779 16.295179430814613 0.452261660415765
13.414636403251404 10.808793026690863 -0.300704962914395
12.766388014833595 10.293820851267332 -0.859461073421624
9.610391933215775 7.754608717109609 -1.080382587099971
8.418434572958720 6.795246644547855 -1.328375843116107
6.515496284391278 5.262977809451505 -1.326564263541158
5.221699818972165 4.220909555256545 -1.305133528375567
4.433800947406401 3.585298937528714 -1.316413570020298
3.662780436554942 2.963944750774266 -1.262519302010096
27.449005559672116 21.959355099807357 9.418942689370935
25.492628885821222 20.401540938483691 7.538109831062916
20.862061238212807 16.707685388889566 5.195347326112563
26.920188016027357 21.567137448683184 5.463317257065023
nan nan nan
17.120982156214925 13.736128626860582 1.920389635701900
19.567338744049721 15.710065434833217 1.315097908472693
12.418186898784572 9.973777658769231 0.278016834545926
13.655278830524900 10.924298010523639 -0.305242588588089
10.408935588260217 8.333166078492383 -0.698789687755786
9.624962649167914 7.711049130468870 -1.078988095216008
8.389436790885901 6.723610643289738 -1.320088727764558
6.552319776199075 5.255033180827606 -1.330318690702123
5.175157265818299 4.153502826563824 -1.289868808745443
4.432612750492618 3.558819994297438 -1.312364451042109
3.653526378313234 2.935411463780952 -1.255790006837431
25.781322238235845 20.478019090680142 8.822105971364522
21.647175436405533 17.206606968182900 6.384110922278889
21.753184844395999 17.303264527146851 5.402947513082243
26.925989556936965 21.433249275068444 5.450802499861805
19.485816542790989 15.516383502211815 3.058433042095581
19.656405894248529 15.663437454203791 2.198939389523415
25.730134019783669 20.510702264354762 1.724469758204999
20.217360606672994 16.127755656684279 0.451423944906775
11.865906023257448 9.428428020789518 -0.264543576776343
10.058196382632707 7.997784842649492 -0.673459084934201
9.734668847923180 7.746079645121080 -1.088400915432755
8.357327830118674 6.652483106614455 -1.311557873726197
6.500181150813910 5.177890917289728 -1.316239588848503
5.187367144566132 4.135094786381008 -1.289487190754690
4.458102400972708 3.555036187594692 -1.316413570020298
3.676830392713454 2.934124607566319 -1.260448749649276
25.713091347626957 20.277844578371155 8.774483267065659
21.673451393739555 17.104379800109399 6.374213075887759
21.092397063484320 16.657771463436127 5.224350293409796
21.436710749077776 16.935769828371715 4.326977303012786
16.827201816857688 13.303635163140521 2.633840249672048
19.704711733127652 15.589783545403193 2.198242143581434
20.098175352027816 15.912490440171865 1.343463996756368
20.286074462104658 16.067018116378744 0.451703183409772
12.234717042952262 9.651999984161685 -0.272013206731501
12.736894193667794 10.055383896060556 -0.850459288947837
9.674099988677806 7.642885731055975 -1.078639472245017
8.377383566036753 6.620808334584625 -1.311070396352577
6.533709500184314 5.167423295397290 -1.319368278149307
5.183296428872698 4.102341543621806 -1.284907774865653
4.479651723626292 3.546710782395015 -1.319112982672424
3.682507431685134 2.917673095336422 -1.258895835378661
26.424657551267696 20.682366247613192 8.991373626861572
21.708381600852849 17.003198232745024 6.366114837931380
21.794552659269016 17.082970492317092 5.382721759572329
27.221665768408805 21.352185584242790 5.479586441429206
17.320936686839421 13.591115266052272 2.703305775412982
20.093927530643501 15.778317097740096 2.235196178506441
16.398343415781969 12.885696525721043 1.092984110177639
15.159969441335383 11.916871722679128 0.336587110549450
14.164124326108517 11.090132900603592 -0.314003696619605
9.660819938868059 7.569606358118424 -0.643208902225780
9.736540968027796 7.634423312457368 -1.082474324925914
8.406279546955002 6.593734655573927 -1.311801612413007
6.572805278474941 5.159297340926096 -1.323435574240353
5.195209655302681 4.080890765593198 -1.284144538884147
4.500282338634365 3.536288454594446 -1.321362493215863
3.608136255039089 2.837284410294898 -1.229908102327179
26.501267779455688 20.593557106711415 8.992926541132187
25.958057182146021 20.185976548317470 7.591648181996756
21.802920927661223 16.967000216778171 5.370128365877477
27.230574848915602 21.206058052195033 5.466445946365828
25.738430723228735 20.051254783121056 4.006089056414008
19.979180458932159 15.575780873759925 2.216370538072947
20.006813641125721 15.608555001174253 1.329856648133203
11.944578865979606 9.322060144672024 0.264473767150594
11.720899808244603 9.111336982132213 -0.259133330780786
10.398155453474681 8.088915440428867 -0.690415934756915
9.682950459298917 7.537971269164155 -1.073584439165653
8.418281418987050 6.555813289335068 -1.310095441605335
6.540915255935669 5.097466195970864 -1.313423768477779
5.223356049217824 4.073597383429080 -1.287579100800924
4.480333098331096 3.495385464336616 -1.311914548933421
3.630200123489497 2.834183060071989 -1.234049207048819
23.877755221650613 18.428213169730679 8.081883502371312
26.019106167493177 20.088097640667261 7.588948769344631
22.377803394664170 17.289294034912775 5.496825538807503
21.628510622688299 16.722443312494427 4.330105992313590
22.399301073683382 17.324640045997157 3.476932367348858
nan nan nan
25.949261135409667 20.099309875039758 1.720178209793078
10.499081507342371 8.135121065597094 0.231837767112874
11.790626327172461 9.099690207258634 -0.259971046289775
10.653949154089732 8.228368801295566 -0.705488690154883
9.676098964610741 7.478539140742066 -1.069923897970252
8.364162638248423 6.466891688227036 -1.298152245951631
6.535233907076776 5.056470868530695 -1.308730734526571
5.249962333284898 4.064955156482507 -1.290632044726949
4.509454017598467 3.492851422396527 -1.316863472128986
3.701146171509538 2.868834533920371 -1.254754730657021
24.501858615975902 18.766988723325131 8.269786129115744
26.256107523498969 20.125186508516144 7.637538197082904
25.939869138565989 19.897169588317166 6.354702782020449
28.731811250563965 22.054662477951592 5.736764701955347
20.044420798663921 15.391744503022567 3.103037221781865
17.250072494391802 13.255589952272262 1.903307110123359
20.295784891773121 15.607298332695912 1.341789246156594
14.401097165997884 11.078330351733769 0.317145129778316
11.809619825200997 9.048747965834171 -0.259691807786779
10.641397745543731 8.159531619831224 -0.702767220430250
9.708467662870527 7.449569249641578 -1.070621143912233
8.341019954051331 6.402602961720715 -1.291083824034132
6.527779800129711 5.014374182724100 -1.303724831645284
5.231432962365593 4.021477844609151 -1.282618066921134
4.507715704211235 3.466397785045546 -1.312814353150796
3.737164680172822 2.875926630010332 -1.263554578190506
24.374513168656172 18.554960704355278 8.208187196381344
21.606056365140631 16.453445583054346 6.269835786672205
26.342658817210467 20.074995091395682 6.437895504004622
21.848892865445578 16.662482324534299 4.352006817419223
22.409544587104396 17.096235346838871 3.460845614019378
22.090022925241826 16.864674333363350 2.431470911174168
nan nan nan
13.558812478265995 10.362745633812683 0.297877673071555
11.822077704971967 8.999489989472607 -0.259342759658033
10.994265039404850 8.375385532860374 -0.724329634402343
9.769850540235634 7.448022519516249 -1.074804619564121
8.357936213726266 6.373959783154391 -1.290596346660512
6.469695898725345 4.937515816523261 -1.289019991931502
5.289288572125765 4.039579873070187 -1.293684988652974
4.537165700047611 3.466416222333797 -1.318213178455049
3.756924051513245 2.872385328238978 -1.267178044821941
23.102859521049972 17.453547283524330 7.758359695993161
21.663357976761251 16.377926131804941 6.269835786672205
22.830358121468542 17.272728854226411 5.564753541161553
22.035826174477698 16.677659240975093 4.377036331825660
26.850865221092931 20.336632915295951 4.135758037797085
20.084567198870282 15.222927788180872 2.204865980030256
19.924096812257421 15.106776438532059 1.310387672410828
nan nan nan
10.688817283188417 8.078025348832908 -0.233862246259599
10.679349555066368 8.076728633472309 -0.701720501305391
9.784668722265245 7.405457342224421 -1.073584439165653
8.329489749037673 6.306402233038220 -1.282796708682582
6.472721235359858 4.904165845317755 -1.286204171560778
5.250167100826095 3.980762661639043 -1.280709976967369
4.586501492599883 3.478821391593834 -1.329010829063554
3.820784876303558 2.900133569399094 -1.285295377979118
24.551605444412292 18.407078060287255 8.222163424816879
28.613702733407830 21.460356918921800 8.257503302854596
21.704737883736193 16.290455227156212 5.275105486179958
21.924642458696216 16.467471713778622 4.342933618446890
28.517372904190950 21.427019394155113 4.379740463294191
22.034698700692232 16.568187465603529 2.411948024798692
19.258908610691762 14.486295821581328 1.262971296054721
27.040355764650261 20.354180358520686 0.590763957902047
11.762932038843124 8.819024431908074 -0.256620184253817
11.664047939895262 8.751249813173212 -0.764209633059466
9.809844870877839 7.365439870920727 -1.073235816194663
8.321898336758991 6.250529545632982 -1.277921934946376
6.461502032292855 4.856725510548704 -1.280259661889250
5.307775180093392 3.992438147330623 -1.291013662717702
4.462796037495412 3.358075792242024 -1.289419443499034
3.782508362524869 2.848254946606696 -1.268730959092557
24.338370596709925 18.108244338681448 8.128470930489767
21.590574718276915 16.075539682665102 6.214497827303615
21.341133376576348 15.901397185974536 5.173213482648883
22.007024820921437 16.403530760157000 4.347313783468016
28.127367562116596 20.980770843985098 4.308568766745584
22.031726754636228 16.445882030404611 2.405324188349870
18.616423032426063 13.901542430757175 1.217648357948331
nan nan nan
11.585106187216063 8.622697084705448 -0.252082558580123
10.722249912137492 7.986298083131655 -0.700673782180532
9.797156506054012 7.302575401121414 -1.069052340542775
8.284784568231297 6.177537721692518 -1.268903603534396
6.467333468415230 4.825871523215577 -1.278069579378686
5.338982768694128 3.986807528320900 -1.295211460615986
4.555674781159213 3.403122354907508 -1.312814353150796
3.820278948711003 2.855854500319289 -1.278048444716247
23.150637431460105 17.105571791245243 7.712807544055118
29.458624764403542 21.774374824637672 8.457259839111950
21.355471732258000 15.796450514519393 5.163291414889303
25.190686146689668 18.646932011994949 4.963978444656606
28.318486275238005 20.969878982387478 4.326605429569546
20.907632494185197 15.493434259003724 2.276682312054326
19.521623665154031 14.471622345048695 1.273543159215795
14.540854870548918 10.787183590991470 0.316028175766330
11.616742735436050 8.583393326846092 -0.252117463392998
10.586257620904590 7.827701411195005 -0.689997247106972
9.491057215357976 7.023012900233174 -1.032969863045245
8.311084297153361 6.152123960916527 -1.269634819594827
6.496837939682894 4.812673558304979 -1.280572530819330
5.367061199356629 3.978669198428090 -1.298646022532764
4.567526140293787 3.387199349299389 -1.312814353150796
3.892277516097677 2.888552901963540 -1.298753968324449
23.191365949075646 17.004613053211827 7.705560610792248
21.736841368130428 15.949781372608969 6.224395673694745
21.942183066641139 16.112240522103171 5.291515059782340
22.469656457159402 16.505603586235040 4.415832079155638
26.843262391639424 19.732766373093835 4.090666380737180
22.027240306025394 16.204304565690276 2.392425138423217
nan nan nan
9.638438877180722 7.098283172679990 0.208940209867158
11.667595279389090 8.558166402459950 -0.252571225960367
10.476661784978861 7.690244238636730 -0.681100134545671
9.777247125581543 7.182102028448477 -1.061382635180981
8.289318387243283 6.091337421587251 -1.263053875050949
6.539060114813145 4.808690560398307 -1.285578433700617
5.300274054152012 3.900564127329245 -1.279183505004356
4.613847233021751 3.396652197019956 -1.322712199541926
3.896115392342402 2.870365302242470 -1.296683415963629
24.693772014296552 17.980615072599306 8.184893482322117
24.003913320822921 17.484710314283518 6.856058234292318
21.938004924263655 15.991604161568157 5.277013576133723
25.310676066283147 18.463629882561950 4.962101231076123
26.879908539538775 19.615542303239828 4.085791607000974
22.083669687204459 16.127316425973891 2.392425138423217
31.688680650668971 23.150168774258606 2.056698408435206
9.527557178248657 6.965459843716986 0.206008205585695
11.642434874854985 8.477365866639422 -0.251384462322632
11.218521798149716 8.174689985956146 -0.727469791776919
9.665422183319404 7.048147082263069 -1.046566158913879
8.313738082150094 6.064704968266830 -1.263541352424569
6.515918870433662 4.756717677435786 -1.277756710448606
5.326539509687731 3.891303964067828 -1.282236448930381
4.578474880717892 3.346031006067821 -1.309215136281294
3.825026159568610 2.797446082836366 -1.269766235272967
24.966203005627506 18.039334324846859 8.253221710229182
28.200616861784606 20.391347548742988 8.034351856945483
23.177038288303805 16.771213666479493 5.560937361254022
25.509389909970761 18.465718715607974 4.987756483342721
32.063602225130182 23.227238588841196 4.861368108431333
nan nan nan
36.296449845036769 26.322550554805026 2.349779763395692
15.654809956237591 11.361366306214160 0.337634254935687
11.825917675103241 8.547960858471683 -0.254700419545716
11.190348934093457 8.094510189612205 -0.723806274839913
9.730313882219551 7.043572574560550 -1.050923946051262
8.321994769037817 6.026333387328717 -1.261591442930087
6.518087440576276 4.723511600897074 -1.274940890077882
5.381412371165710 3.902654386338899 -1.292158516689961
4.590126814948833 3.330028761079945 -1.309215136281294
3.811318308956591 2.767052682562387 -1.262001663919891
25.160872913360105 18.053299105603042 8.297738585986815
24.472100232866151 17.565565424663525 6.954586796094930
25.907865890251969 18.609834489381701 6.200529113756200
27.958794991369381 20.097832565921205 5.453618320232529
38.723266127837874 27.845991027009042 5.856309427990957
nan nan nan
36.427013726895112 26.223697485445285 2.352291889295353
15.621360973773236 11.254051653749503 0.336063538356331
nan nan nan
11.612766416853720 8.338474035936457 -0.749241549573984
9.453895749343413 6.793313242938495 -1.018502009749133
8.302683433807385 5.968280877341764 -1.255497975759829
6.455961075551911 4.644206331720453 -1.259610312503939
5.395002391816777 3.883845975323540 -1.292158516689961
4.615954952365873 3.324235381796350 -1.313264255259484
3.841328146961118 2.768415398888748 -1.268730959092557
25.184399068468192 17.937342939472728 8.284797633731689
24.485653649622719 17.446110588651553 6.941089732834299
25.830400678425541 18.417844594422945 6.166565112579175
27.393625276079462 19.546897557994217 5.330035092850746
18.649932360345090 13.312692201606852 2.813475661851235
20.831145747874988 14.880664907033463 2.239728277129319
32.738610163549275 23.395356325360204 2.108825020853179
15.592234123148343 11.150599245676750 0.334597536215600
11.893448992317404 8.470993202114137 -0.254874943610088
11.217310837409190 7.995323754693546 -0.721922180415167
9.631644578434761 6.870185310245293 -1.035061600871188
8.283068708304363 5.910436967553678 -1.249404508589572
6.484993720763963 4.630826119670994 -1.262113263944583
5.376580269237753 3.842161001408908 -1.284526156874900
4.606921499731810 3.293369540888868 -1.307415527846543
3.821115849828778 2.733633285181748 -1.258895835378661
24.548054625448085 17.355274941063062 8.055483959770855
23.583829931904173 16.679750251226839 6.668898957078222
26.178173195263927 18.528321186833281 6.234111496942472
19.749194760067912 13.983209334126022 3.832644393485656
18.910090154014675 13.399002618732284 2.845649168510194
17.960745087577482 12.735750692271981 1.926316226208741
14.149758172357263 10.037136990687017 0.909180231852420
14.928267522669167 10.597207853614989 0.319553561866661
nan nan nan
11.298955937977999 7.994186879062514 -0.725376353527201
9.722235940328410 6.883726754483038 -1.042208371776496
8.285830529793976 5.868866435499168 -1.246723383034659
6.528515693168660 4.627580672315725 -1.267432035755951
5.370743617337660 3.809739274158597 -1.279946740985862
4.591372018552902 3.258096412608576 -1.299767191998852
3.808583379930457 2.704618949861484 -1.251648902115790
24.592521851547442 17.251871909399714 8.049272302688395
23.726441671945580 16.656669848215021 6.692743768838671
28.006553062281949 19.676033561401180 6.653128050789364
19.768794180943178 13.893741253594746 3.827012752744208
27.291219703724767 19.194825913031831 4.096759847907437
23.538101550461047 16.567416429818309 2.518278030950835
41.535098568046976 29.245539262325035 2.662225422166067
10.695477059309374 7.536445319166467 0.228382190638292
12.382789588180186 8.689861737661893 -0.264054909396100
11.380729125474847 7.992576970915406 -0.728830526639236
9.684262632461017 6.806213773876733 -1.035584535327674
8.267292533479953 5.812506407678820 -1.240873654551212
6.551091425925069 4.609310499074593 -1.268683511476272
5.327825609653257 3.751408770456223 -1.266590111309504
4.586785056297005 3.230827635877968 -1.295268170911975
3.802211145308012 2.680177729247559 -1.246472521213740
27.100036960198441 18.891187718010059 8.851611342506210
24.545912546557609 17.117097594067307 6.908696781008782
28.937613003643960 20.194667830579363 6.859201765796032
19.792908458271278 13.817998065506881 3.823258325583243
18.871611016231768 13.184614283613355 2.826637550938990
17.953375582750866 12.552419007839262 1.916554783021003
18.873945247025041 13.200956523980862 1.207076494787257
15.571611184247248 10.899309777699132 0.331770246372760
12.355893486969803 8.613180256134058 -0.262903050571239
11.481132909198999 8.009349255562425 -0.733645434613587
9.638616939190076 6.728995412709693 -1.028437764422366
8.235060283101067 5.751270246497866 -1.233317755260093
6.518585112224275 4.555890033277993 -1.259610312503939
5.339584696757022 3.734652427748959 -1.266590111309504
4.601702462706084 3.219753488258300 -1.296617877238038
3.805864954286237 2.664895330399376 -1.244919606943125
24.338027879555749 16.839883621697652 7.930215541941235
24.458097666508358 16.929275051319951 6.867305787009511
19.355296289917970 13.407240981410224 4.576744563101804
25.017222762895255 17.335669079307472 4.820684474679754
19.080643183529759 13.231780892533534 2.851011419620020
18.006903378291305 12.496489205556234 1.917600651933975
18.601625201669723 12.914026966150953 1.186770143764994
11.776556460565292 8.181872073865643 0.250302413123520
nan nan nan
9.860418027561204 6.827677141004884 -0.628554834477755
9.639119904098143 6.679422190741718 -1.025997403625432
8.033209968264602 5.568683441520490 -1.200169293853892
6.575024977799874 4.561257126719267 -1.267432035755951
5.323559734019535 3.695838036499770 -1.259720987475949
4.590505141068691 3.188108340190852 -1.290319247716410
3.857975126641324 2.681362563675998 -1.258895835378661
24.448701557130249 16.778008324858860 7.945227046557182
24.537380227374118 16.845164568303524 6.871354905987700
19.424433388413693 13.345052215119813 4.580942361000088
25.028504671265146 17.208047140596520 4.810672668917180
18.292259343148896 12.581325079097239 2.725973473286339
18.090859817057584 12.452107961352427 1.921435504614872
18.203089578774385 12.538723453021836 1.158404055481319
23.311147385351116 16.063275565402769 0.494147435865245
9.973540815457927 6.844377826734549 -0.211139213078256
10.610972519958567 7.287267175450175 -0.674610475971546
9.595732752390610 6.594964404547914 -1.018676321234629
8.201752232553490 5.639016030202935 -1.222105775666819
6.546923974839514 4.504625179180543 -1.258671705713698
5.349030442849685 3.683163717309831 -1.262392313411220
4.569010856809570 3.147243952158085 -1.280871303433967
3.896872437736360 2.686265097946007 -1.268213321002352
11.340819984819809 7.721689481751837 3.676265716636205
24.404390679467806 16.628829092438782 6.817816555053860
24.268874998316761 16.548898071765674 5.709768377647727
25.011446295262818 17.061651867453392 4.795342091343237
18.716426782367900 12.777056399156313 2.782520848626327
17.884156532469383 12.218048572363164 1.894940158819584
19.089888272039993 13.046664504001313 1.211786730849121
23.264741509015330 15.911814947213095 0.491983337467022
12.212031278480504 8.317996010328926 -0.257911662330176
10.684204611276108 7.282806586429372 -0.677645961433637
9.559442272377305 6.521009387978110 -1.012401107756797
8.191871754163641 5.590211343813119 -1.217718479304234
6.547926714961454 4.471718431514168 -1.255855885342974
5.272706370445077 3.603542884222244 -1.241403323919801
4.616969052810749 3.156572528124618 -1.291219051933785
3.888687356362983 2.660646473418560 -1.262519302010096
11.521847530146243 7.792082093794544 3.726994249476299
24.346415783114743 16.471371440328085 6.786323407445719
24.378893247734279 16.505751607104045 5.722743389333332
24.899426861021610 16.864517969037387 4.763116591544949
18.809633109680210 12.749447439789400 2.790076747917447
18.429120735559291 12.500921246363411 1.948279473381151
18.656519040863891 12.664682148585701 1.181745891965672
15.032637362323010 10.208500710611085 0.317180034591191
12.070589169192711 8.163189235122875 -0.254351371416970
10.933246835951650 7.399582003964380 -0.691881341531717
9.554620179321473 6.471396494420473 -1.009612123988872
8.142985629136156 5.517362132534430 -1.207725193145011
6.562719464932073 4.449980137017594 -1.255855885342974
5.226143734325126 3.546352510499162 -1.227665076252689
4.604838501114410 3.125921605978397 -1.284920422412157
3.855941348514788 2.619511339045792 -1.249060711664765
11.359701880309695 7.624772219422852 3.665912954832104
24.512159728244864 16.459070725809692 6.816466848727798
24.504800608598782 16.466542642074426 5.738771344944961
24.992570605209142 16.800642904388365 4.769686839076639
18.998964644740617 12.781219244333878 2.811525752356753
18.161930204830515 12.227330077937607 1.915508914108031
nan nan nan
15.631972462105299 10.535961302805349 0.329047670968543
12.759831965390427 8.564556827221967 -0.268243486941048
10.917560989216764 7.333530966424243 -0.689264543719570
9.511010810580490 6.393543857990953 -1.002639664569059
8.130897183213872 5.467856933274766 -1.203094158095616
6.566741090666042 4.419324552798394 -1.253665802832410
5.196153155770714 3.499574023654910 -1.217743008493109
4.575318220990330 3.082606786094664 -1.273672869694964
3.791380416048875 2.556355716211719 -1.225249359515333
nan nan nan
24.453103622408815 16.302027453873688 6.784973701119656
24.696455279305827 16.476716463443598 5.770827256168221
25.023870928722175 16.707784117415667 4.765619542985593
30.810994676823274 20.579470962121761 4.549382589314155
20.127135372422007 13.453603694352681 2.118058860253589
29.348642168680190 19.624957651020988 1.850285397013036
18.862677836546958 12.622695213858847 0.396169626126336
12.738241640903409 8.488928437233984 -0.267196342554811
10.528074474766214 7.021352859124836 -0.663201237510584
9.449300741804320 6.306666821203494 -0.993924090294294
8.140729899800240 5.435352432542246 -1.201875464661564
6.481169586146986 4.330579066195680 -1.234580798097502
5.219153629811721 3.489962785008584 -1.220414334428381
4.556359837061724 3.047914350291131 -1.265574631738585
3.807863444395942 2.549142392987431 -1.227837549966358
10.516660584953362 6.952909664304411 3.378106176678100
24.262826742314079 16.053125562064675 6.716588580599121
24.961710779624575 16.528061923558688 5.819292740993864
24.953191304133167 16.528686152270812 4.740590028579157
30.288650293403869 20.078043497644273 4.461880400749259
18.526983990610585 12.290663583805985 1.945141866642235
32.355414638688323 21.480610161549464 2.035345338288086
19.048215807442457 12.650812803110767 0.399136535220674
12.819500912003868 8.478608793407670 -0.268278391753922
10.888947605682061 7.207237196817355 -0.684344963832733
nan nan nan
8.009069479993498 5.307120235639912 -1.179695244161828
6.502831788705247 4.312296061125068 -1.235832273817824
5.182229929417455 3.439155516384999 -1.208965794705788
4.565347761312733 3.030913267771894 -1.265124729629897
3.810302091989107 2.531558657302758 -1.225766997605538
11.521003548998486 7.556376376312768 3.691794859342356
24.971530160566566 16.390754370164341 6.896099521965526
33.034648165466180 21.699707929934945 7.682733389841201
24.924901066075250 16.385057198779531 4.724320844214972
26.449437179047003 17.393864170529170 3.886900838563774
18.725022545406926 12.323445681858567 1.961178523307804
16.604769869388555 10.936358400322934 1.042008888797012
nan nan nan
11.631650030496401 7.631850745885418 -0.242832783168363
10.486224907780370 6.885542694594682 -0.657444282323860
9.444236104215307 6.206063414726205 -0.988694745729434
8.093159447477873 5.320257043918874 -1.189201052947429
6.561500663113152 4.316660686718382 -1.243966865999916
5.180042301207372 3.410422291223250 -1.205531232789010
4.573171023219222 3.012016289855311 -1.264224925412521
3.821168113052117 2.518639363634716 -1.226284635695743
25.194572553918235 16.399082760384520 8.054966321680650
25.098805736202024 16.349224163375169 6.915445312639098
24.682981168954473 16.090632992453056 5.727322805222369
18.873775772502697 12.313049701723173 3.569208754357907
19.820570270184451 12.935660558880373 2.906096362839147
18.656161831902281 12.185011317261290 1.949499653779618
15.661492716345091 10.236885819510032 0.980566476167796
16.483836481181690 10.778504343867995 0.343777502001611
10.399728181381336 6.771740828310762 -0.216619268699563
10.953628936931240 7.137856980506358 -0.685182339132621
9.425788843641010 6.146938932036250 -0.984511270077547
8.040190773919615 5.245334574486197 -1.178720289414587
6.513674498922289 4.252693817084282 -1.232077846656858
5.165618837410322 3.375138051771290 -1.199425344936961
4.544508388415636 2.970445686155076 -1.253427274804016
3.825086457887483 2.502113067033709 -1.224731721425128
25.162819121576760 16.259874778877069 8.027531502899784
11.755484552217595 7.599144530850943 3.231646846703965
24.722513708957599 15.993711383552627 5.723506625314839
18.757455028636524 12.144031823856928 3.539173337070183
18.346067182667849 11.882233991590651 2.683806680468158
nan nan nan
15.698806312876853 10.183241549236703 0.980671148080281
10.824686409861942 7.024262717845927 0.225240757479581
11.694723826803489 7.556973011593910 -0.243042212045610
11.349123197635594 7.339267589068619 -0.708314831792002
9.453878882821359 6.118329367474995 -0.985208516019528
8.081780275160556 5.232340778913394 -1.182132631029931
6.569924887581345 4.256784235556115 -1.239899569908870
5.193841494523278 3.367767266700314 -1.203241524844492
4.510707016816846 2.925930685086933 -1.241279917869447
3.815973080586871 2.477175110540943 -1.219037702432873
25.184838277123994 16.143561055710268 8.015625826825067
nan nan nan
24.940097334528954 16.011257925421987 5.760905188408641
24.420372367132732 15.689640735215704 4.597296058602305
19.062077738749711 12.251735647057089 2.782277109939517
20.686235172348997 13.305833575438779 2.151875288439680
19.296254757840014 12.421292705590458 1.202680274462849
15.027058851785110 9.676856268068253 0.311979217472880
11.039282422602506 7.078933658804970 -0.228905762831411
10.782994905158853 6.919902346605876 -0.671470318596969
9.431591080566504 6.057298692762351 -0.980676417396650
8.083294294664336 5.193368124516975 -1.179695244161828
6.554835815152023 4.214594893394748 -1.234267929167422
5.236934327785926 3.369801673510239 -1.210492266668800
4.530724530433960 2.916496297710504 -1.243979330521574
3.826220819784388 2.464886003378275 -1.219555340523078
26.956096124437103 17.153091264531696 8.561216373901182
33.864672632392903 21.557560865642671 9.267983438967239
25.128298466177679 16.008491657496347 5.791434627668888
24.308426135907247 15.498107081022857 4.566009165594259
19.258704052377553 12.283328788882088 2.804701069126064
19.493136320445839 12.442425766404996 2.023233412144137
19.385418471663279 12.378432102395116 1.205401744187482
15.259578683278072 9.751404230800638 0.316097985392079
11.720202617038257 7.457968104907050 -0.242483735039617
10.719481937186677 6.826433221569975 -0.666027379147703
9.440916297179987 6.016843769738973 -0.979456236998182
8.087982586616219 5.156583132779119 -1.177745334667345
6.592821404271664 4.206564017121394 -1.238648094188548
5.280104266959513 3.371576025437082 -1.217743008493109
4.634486807153918 2.960460026065571 -1.269623750716774
3.849450639153580 2.460879853809310 -1.224214083334923
27.128238217820048 17.123264017283180 8.595898125944920
11.462068249237603 7.240419994432412 3.129968970140538
25.250403999453830 15.962642781019797 5.806699347299012
24.341692895309428 15.394126407548198 4.561629000573133
19.115275789585265 12.098189028558901 2.777646074890121
18.923779128520231 11.986243199816956 1.959784031423841
28.521915236978568 18.072638710858257 1.769583352486417
14.673744933421142 9.305058305408158 0.303287919067113
12.341334937825557 7.792826706833291 -0.254770229171465
10.726361398166901 6.778304203686243 -0.664980660022844
9.421447767143531 5.958293800406464 -0.975272761346295
8.080769860226157 5.112399523594057 -1.174089254365191
6.625823592354870 4.195148986430183 -1.242089652419433
5.318374927261212 3.369937389921960 -1.223848896345158
4.629979206269512 2.934874682335123 -1.265574631738585
3.877592823995324 2.459846009127057 -1.230425740417384
28.062331278226218 17.582998634758471 8.873352142294820
11.482318655115487 7.197260854274761 3.128619263814474
25.277697218171422 15.856669572791125 5.800211841456209
27.608149124312661 17.331991522067746 5.162963084187779
18.612725596713275 11.689325750751323 2.698674740363586
19.393969162461591 12.189411103652288 2.004059148739652
28.706565043338333 18.049512593894924 1.777119730185401
13.785416016052819 8.674420957299883 0.284299700863348
10.812872269247446 6.775015107013338 -0.222727610952612
10.846406854417808 6.801300502595127 -0.670946959034540
9.362870934883263 5.875595280077039 -0.967080121528015
8.075028777685048 5.069384756113190 -1.170676912749847
6.606973995428436 4.150977380656595 -1.235832273817824
5.350050071292610 3.363892405586628 -1.228428312234195
4.666588488573976 2.935296339742147 -1.272773065477588
3.856727477704568 2.427770951468295 -1.221108254793693
10.724266550636019 6.664884851704743 3.383282557580151
29.288031926034030 18.216012972350835 7.962817421664134
25.234555228861300 15.707127265737142 5.777696380001777
24.715190317941794 15.389836603338139 4.611375160455926
20.018053081709461 12.474687723029678 2.896103076679925
18.819344587352241 11.736808575653018 1.940435456533861
28.803284914429678 17.970342084653105 1.779213168435118
14.638272126643166 9.139904294683769 0.301228535107513
12.536391679998887 7.794112341595173 -0.257667328640054
10.814120324347323 6.728578675417237 -0.667492785922506
9.347806281555089 5.820760812363876 -0.963419580332613
8.069086144453065 5.026472541889564 -1.167264571134502
6.663331101325872 4.154015330938918 -1.243653997069835
5.331777772112520 3.326491084918283 -1.221559188400640
4.693337812817921 2.929307118015581 -1.277272086564466
3.889755709781470 2.429645261222409 -1.228872826146769
27.303470554201098 16.849803790409414 8.596933402125329
29.049803445447434 17.934520906619994 7.881835042100342
25.159569622221237 15.544933723606857 5.748693412704542
19.380284524955652 11.983530421855352 3.608943108478126
20.759917698216277 12.841616636389761 2.997254631706197
37.230131266923095 23.047691420140080 3.830843516730567
19.163703921237609 11.868112826203070 1.181327204315728
14.619209054049232 9.060761602089570 0.300216295534151
10.807685594150451 6.669752159468578 -0.221680466566375
10.936631757682996 6.754601442345277 -0.673668428759173
9.239948611820274 5.711165180162814 -0.950346218920465
8.072203024037414 4.991334899411982 -1.165314661640020
6.482216824414321 4.011317485710137 -1.207361201180502
5.346117692146299 3.310859331438424 -1.222322424382146
4.658298324223768 2.886016656399079 -1.265124729629897
3.910926249443521 2.424877010839533 -1.233013930868409
27.030561152441553 16.544887386185330 8.491852869813705
11.186913056381329 6.852663733907946 3.028740995685799
34.462933876612276 21.127187593354247 7.857514429606115
24.780641972518467 15.197497871484055 4.604179175064075
10.465752598525171 6.423475979742109 1.507767516608485
31.409150229625784 19.292824275698827 3.224936793148848
20.084776492267832 12.341745050015440 1.235442583070932
14.611570271790834 8.985582994865464 0.299413484838036
12.326524367458127 7.547786547824852 -0.252291987457370
10.907351844723898 6.684033806966347 -0.670423599472110
9.278510710783928 5.690334694882395 -0.952263645260913
8.010051628241367 4.914336827257174 -1.153858943359936
6.595499108573175 4.049648341388087 -1.225820468055249
5.372696432838852 3.301428304703899 -1.225756986298924
4.633480855805394 2.848307386786826 -1.255676785347454
3.897976492003579 2.398051137912625 -1.226284635695743
27.347792384895335 16.614646003420628 8.574157326156307
11.330666393921245 6.886444803021191 3.061133947511315
45.643830218396900 27.762796242255838 10.384588764373074
24.901770739173536 15.158378182295593 4.617319670127455
24.965637533845946 15.203228180155223 3.589052163281593
28.805215547446995 17.555187833471482 2.951267760921201
20.797920387821232 12.680162400608365 1.276578644677886
14.707713680594100 8.974103733611759 0.300739867727269
11.072740043831734 6.727038640887669 -0.226148282614320
10.927203874175541 6.643844093875956 -0.670214255647139
9.352782863259399 5.691053694836853 -0.957841612796763
8.008505031328674 4.874992594350986 -1.151177817805023
6.763110184413882 4.120123464706404 -1.254291540692571
5.367425109155783 3.272434012058850 -1.221940806391393
4.591820282239921 2.800659484797675 -1.241729819978135
3.965685111453125 2.420664530464227 -1.244919606943125
11.799688782695734 7.109603442343988 3.691277221252151
10.862334324275121 6.549993538273429 2.928412825448435
45.289983040184666 27.331446641604568 10.282315142851246
24.913193274434580 15.040462419351130 4.609185077945362
25.196955163751600 15.223777257469759 3.614644725396674
28.835630198779867 17.435975327844886 2.948130154182285
31.348529836168080 18.962917262384050 1.920101562641123
18.885562089891291 11.432998320374326 0.385349134135220
11.060189022251356 6.666668039051974 -0.225415281543954
10.808383108045826 6.520033534946360 -0.661526486910810
9.224199111129035 5.568785123259037 -0.942676513558671
7.996586195117886 4.829561639542433 -1.147034260129248
6.697994624617488 4.048464995446023 -1.239586700978790
5.375455675583414 3.251645986476063 -1.221177570409887
4.616573547749955 2.793694241227598 -1.245778938956325
3.906360735969935 2.365776153901267 -1.223696445244718
11.382172116609254 6.806694357646786 3.553585489257610
10.911889013917538 6.528044476171844 2.935611259187438
47.820788314279390 28.631488418481474 10.834134757480214
24.942598623794019 14.945580698424687 4.605430650784397
24.926443628040296 14.941813740206268 3.568334374902718
10.152067533498309 6.090335327922250 1.035758846813170
36.365437333022335 21.824652035044124 2.222708061637824
18.651075127766678 11.202266538793914 0.379764364075289
12.801335677661385 7.655373546876014 -0.260354999231395
10.767666641101455 6.444315542718575 -0.657653626148832
9.219652211581616 5.522219940795372 -0.940236152761736
8.001476165098353 4.794476691691589 -1.145328089321576
6.813732528014232 4.086014938123620 -1.258358836783617
5.400240222355236 3.240944490210455 -1.224230514335912
4.653029179779392 2.793611847704515 -1.252977372695328
3.917906877096050 2.354115951464269 -1.224731721425128
11.296206789827586 6.701864616993239 3.519421375304077
27.526727711663629 16.337677471663344 7.390092037304654
9.823774498132366 5.835249729077607 2.221016706182982
24.906320277851474 14.805934730783074 4.589161466420213
24.959680471007303 14.843551855625121 3.565653249347805
nan nan nan
9.840121324784985 5.858908582872218 0.600188746194080
18.621351233395814 11.096148690841263 0.378368171560307
11.063466265872137 6.563783267080089 -0.224542661222090
10.748879554011578 6.382217635587422 -0.655141500249171
9.233733771034917 5.486950310782094 -0.939713218305250
7.989155225167394 4.749272855176137 -1.141184531645801
6.817767961940662 4.056145700993531 -1.256481623203134
5.426702275777370 3.231113874598387 -1.227665076252689
4.661078119252902 2.776355471053314 -1.252527470586640
3.932737938429724 2.344382325617806 -1.226802273785948
11.423245645042215 6.726120688722091 3.552032574986995
27.466575841358498 16.179049617489330 7.359498693913888
9.861674611298712 5.813608025287980 2.225214504081266
24.915312972829113 14.693818483418154 4.581339743168201
10.763223197676588 6.352681196867962 1.534578772157617
9.968561831592204 5.888348146503347 1.012924042213283
24.867114063638894 14.694656480169026 1.513765198370907
13.762890021731540 8.139350469344267 0.279098883745038
13.084052371670568 7.704020213170468 -0.265032244156587
10.699435141376684 6.304964551499645 -0.650849951837249
9.166069828911295 5.405694338226287 -0.930997644030485
7.958698294593175 4.695518731277211 -1.134603587101923
6.814171226201027 4.023471252922336 -1.253352933902330
5.423865563344337 3.205110212789221 -1.224612132326665
4.631675897897426 2.738074490380490 -1.242179722086823
3.940490566849732 2.331328006437942 -1.226802273785948
11.426133582836197 6.671544049267801 3.545303279814329
nan nan nan
9.888686686589221 5.783113369118618 2.226740976044278
26.686806631010612 15.613260996599653 4.897024493619387
10.790471755667367 6.318080921468380 1.535309988218048
10.025154076323492 5.874669142236883 1.016584583408685
9.940078943431111 5.827146560939489 0.603852263131086
12.273424953342499 7.200775650902883 0.248382648415419
11.482582682677496 6.707191411550656 -0.232117005615871
10.669650929318394 6.237338941299583 -0.647709794462673
9.124694105566498 5.338451788337818 -0.924896742038148
7.903084976419493 4.625594414685898 -1.124366562255891
6.848628089540881 4.011641855140124 -1.257107361063295
5.438407802623253 3.188143625859746 -1.225375368308171
4.627757447051740 2.714003563621975 -1.238580505217321
3.871964834105202 2.272576767881077 -1.202990921636516
nan nan nan
9.743135629110878 5.647898177618823 2.599984286106392
9.915605948244810 5.752500922145362 2.228267448007291
26.568587917185365 15.419863237627505 4.865424731681260
10.802161018558918 6.274394393388164 1.533847556097186
nan nan nan
24.996719791879119 14.536759522236800 1.515439948970681
12.006405186128408 6.987894686151914 0.242483735039617
nan nan nan
10.680991762109016 6.194045218576305 -0.647081762987758
9.122594847923526 5.294566853373378 -0.922805004212205
7.902016065950327 4.588011880856086 -1.121929175387788
6.866005531824071 3.989696164977186 -1.257733098923456
5.447806232143525 3.168153652950159 -1.224993750317418
4.684366598969312 2.725272054067371 -1.251177764260577
3.988390287950303 2.322230578148628 -1.236637397499844
27.324057045896517 15.705684483208644 8.444747803605047
nan nan nan
10.088769254198271 5.805986655495545 2.262613067175069
26.687304828083573 15.364480322712396 4.877313751024318
28.079095806624107 16.178818455451282 3.979034062178065
10.212630766930516 5.889137515158213 1.031401059675787
11.918146180777759 6.875399066050233 0.721084805115280
12.470598243466700 7.199903252821175 0.251349557509757
14.337726992830202 8.241229184140970 -0.288662802472669
10.673116801340008 6.139793370654301 -0.645302340475497
9.077133759119194 5.225909619837409 -0.916355479248878
7.885299676890165 4.541576584318737 -1.117298140338392
6.019048340037905 3.469498651255375 -1.100360027092984
5.462233103685502 3.151080026203974 -1.225756986298924
4.687099720991218 2.705007657887369 -1.249378155825826
3.971379126823873 2.293801082959398 -1.228872826146769
9.476988842169472 5.403387035563295 2.923102295387869
11.315947446618413 6.454502468263380 3.007595596577475
9.873683779677231 5.636418594208837 2.209949784451142
26.614614811307941 15.205343659528738 4.854787188058524
20.100653150008320 11.488469762025835 2.842724304268470
10.227937139590257 5.850485121725774 1.030878125219301
9.444891382086107 5.406951394887201 0.570357251135602
22.567141833553741 12.924323989334589 0.453937091433744
11.065781373413790 6.309250818722513 -0.222343658010992
10.607748183820084 6.053006729760536 -0.640068744851203
9.069368260235409 5.179371882566346 -0.913740806966448
7.902828324356756 4.515008817751014 -1.117541879025202
6.590163119659355 3.768114620461206 -1.202355298299215
5.449343360774848 3.118342795252123 -1.220414334428381
4.693130967651500 2.686693790895335 -1.248478351608451
nan nan nan
9.490002670380077 5.364813032381218 2.921031743027049
9.506624086756968 5.378589120751262 2.521701319194727
9.792503267034419 5.544845069764904 2.187434322996710
26.512039503485589 15.018120855502426 4.826003246491123
9.869134632011324 5.595062616281624 1.392966595120836
23.912114978047505 13.567415996628656 2.405324188349870
9.464645410117884 5.372297820003237 0.570357251135602
14.718307145586239 8.361162161794132 0.295469240983210
12.071186583581078 6.826767834016124 -0.242064877285122
10.475854931008998 5.929367431024347 -0.630857616552445
9.024983741636284 5.112330061707199 -0.907465593488617
7.904724071189084 4.479565594550709 -1.115591969530720
6.548291800075979 3.713903000465041 -1.192343492536640
5.460195209201676 3.099302039126358 -1.220414334428381
4.675367284815937 2.654899040936750 -1.241279917869447
nan nan nan
9.485837497450960 5.321026988691489 2.914302447854384
9.542335312745568 5.354908833947600 2.526200340281604
9.859727962192949 5.537547707975125 2.198119626737796
27.938583808813160 15.697643067690258 5.075672652695331
9.883414050381679 5.557659881461847 1.392235379060405
33.370123403756118 18.780084894997739 3.350092439734485
9.520693189058598 5.362445867901771 0.572660033210291
14.545312559074773 8.195862418175327 0.291420282689760
11.364188607400889 6.374677438951466 -0.227439760690679
10.510421084486211 5.900585569590223 -0.631694991852332
9.016719258466610 5.066156592959762 -0.904850921206187
7.901277461869093 4.441246212936247 -1.112910843975807
6.599092190835550 3.712329968782872 -1.199226608998410
5.517170793985448 3.106229158449415 -1.230718020178714
4.681210255462695 2.636650093927401 -1.240380113652072
nan nan nan
11.894791325349058 6.617837005915073 3.647277983584722
