# This PCD file was generated using the MATLABÂ® pcwrite function
# from Computer Vision ToolboxÂ®.
# .PCD v.7 - Point Cloud Data file format
VERSION .7
FIELDS x y z
SIZE 8 8 8
TYPE F F F
COUNT 1 1 1
WIDTH 985
HEIGHT 1
VIEWPOINT 0 0 0 1 0 0 0
POINTS 985
DATA ascii
32.439822968092130 43.505512524587388 12.528873922735905
nan nan nan
nan nan nan
nan nan nan
nan nan nan
16.878212042649174 22.709966103794592 1.482886984187570
18.585865401706311 25.016765988196255 0.543991508650127
20.054265734576173 26.885270693783713 -0.585458426345113
9.601416898487175 12.881288979214826 -0.841980864036480
8.916561231960086 11.971203289780409 -1.305941649330910
7.992691954798673 10.734744603090197 -1.643286226475009
5.445324841489849 7.318784280403677 -1.444828719111573
4.316484414741733 5.805797848043892 -1.406262295925135
3.558208566250761 4.787639574950088 -1.377150354693142
2.976297737867178 4.007588303774396 -1.337576825089827
17.481777703693485 23.258168886663213 7.796147276578130
21.124545993241288 28.125028908753187 8.120733061813526
nan nan nan
nan nan nan
nan nan nan
16.477141969041192 21.993422523444302 2.404278319436898
23.713043738559662 31.674822722835497 2.073655258257920
nan nan nan
9.409122451646757 12.522668165783227 -0.273409399246483
9.435264218638336 12.566592073613130 -0.823558607438964
8.988187073337052 11.979848267882513 -1.310299436468293
6.773548091053972 9.031363842647499 -1.386141911890147
5.455438188709299 7.279182693895523 -1.440761423020526
4.349669578891587 5.807980791824017 -1.410460093823419
3.565555781746255 4.762709862991787 -1.373551137823640
2.996054822670673 4.004909141375394 -1.340165015540852
17.380433993614361 22.964387075333772 7.716948648776758
24.213742879411296 32.004695150578591 9.265284026315113
nan nan nan
nan nan nan
nan nan nan
nan nan nan
nan nan nan
nan nan nan
20.120791209879513 26.585161094102119 -0.581967945057656
10.934425578370327 14.457902231769447 -0.950002277721916
8.962678644707614 11.859387692445841 -1.300537993280555
6.837340215178882 9.050430145968967 -1.392722856434025
5.477243478791461 7.255365609802108 -1.439822816230285
4.359275684623308 5.778656475169193 -1.407025531906642
3.588025640471114 4.758014352571310 -1.375800648367078
3.006528459400531 3.989798023101864 -1.338612101270237
35.575631137014092 46.649000922793505 15.719633523346701
21.284943817109479 27.930368618517388 8.107235998552895
nan nan nan
nan nan nan
nan nan nan
nan nan nan
23.276391656626551 30.643296381865156 2.016713737865597
nan nan nan
19.049614655799328 24.988094161714443 -0.548459324698072
nan nan nan
9.012468710336012 11.839127054072618 -1.301758173679022
8.283780912872640 10.885836236735697 -1.679603290809742
5.501340378154399 7.234629856137200 -1.439509947300204
4.373481399383704 5.755588712161821 -1.405117441952876
3.621114826949413 4.767186276631808 -1.382099277888707
3.022773128314480 3.982356528342170 -1.339647377450647
17.463853648368904 22.742895142616650 7.683302172913431
32.313154687879972 42.096108354893019 12.251734223784263
nan nan nan
nan nan nan
nan nan nan
17.680380928046674 23.091549729533959 2.544424753775132
16.648878609953400 21.752215166442802 1.435575279743949
nan nan nan
18.871223058942945 24.575689643537192 -0.540850075491416
nan nan nan
9.048890716960438 11.801271171141829 -1.301060927737041
8.104356990720104 10.573261940560116 -1.635730327183889
5.521755772819112 7.209109636721274 -1.438258471579883
4.400705006906263 5.749641428524725 -1.407407149897395
3.640101667385852 4.757612572497731 -1.382999082106082
3.031962290918921 3.965642054375093 -1.337576825089827
17.562461560807545 22.698596959834390 7.690031468086096
32.650616885413235 42.229726897375691 12.323718561174299
nan nan nan
nan nan nan
nan nan nan
15.804346185843777 20.492750729096496 2.264131885098664
23.326789075298578 30.257666701719359 2.002269013942545
nan nan nan
19.169768338812982 24.784896620870665 -0.546923512931591
nan nan nan
9.136307998251347 11.829533072721198 -1.307684764185863
8.454198874220706 10.950300123199881 -1.698614908380946
5.587912104098818 7.242967807052294 -1.448896015202618
4.429138981328547 5.745128943380588 -1.410078475832666
3.667392636854061 4.758769224811969 -1.387048201084272
3.048143913102844 3.958095542978588 -1.338612101270237
17.643572456060237 22.647852829282535 7.692619658537121
23.820092536770343 30.587241208814888 8.950352550233701
23.031810555777188 29.596318615703858 7.289666859365518
nan nan nan
nan nan nan
17.907159596269810 23.052521615636525 2.553837573991879
23.344068784697335 30.062476449641082 1.994732636243561
nan nan nan
nan nan nan
10.188067050200356 13.087148385223884 -0.869195561282811
9.129834601313251 11.736238331097443 -1.300886616251546
6.636454689724761 8.534116242048015 -1.327400888368866
5.540435699918544 7.129830428884289 -1.430123879397791
4.441941612792394 5.720329491694625 -1.407788767888148
3.678006828410732 4.738241694641633 -1.384798690540833
3.064309765584662 3.950484345574866 -1.339647377450647
27.051910539976205 34.463402405504908 11.739514247760138
22.370409808473397 28.519788595224146 8.368179221591779
23.154358728969736 29.540464923070196 7.295772747217568
nan nan nan
nan nan nan
17.910171626601635 22.891015965246286 2.542855950405675
16.735477874609305 21.397332212760684 1.423642681720558
nan nan nan
nan nan nan
9.223135645814910 11.762700913194331 -0.783364593044383
9.142483043756178 11.668226629137092 -1.296877452085154
8.643052812823678 11.034788049213391 -1.721038867567493
5.559202092044480 7.102669480940994 -1.428559534747388
4.465510757067349 5.709428669114547 -1.408933621860407
3.699325171553353 4.731515025062245 -1.386598298975584
3.079270227171170 3.941286160529021 -1.340165015540852
nan nan nan
22.445790072665741 28.400911698232676 8.357381570983273
nan nan nan
nan nan nan
nan nan nan
18.244346767746222 23.142843546674793 2.578241181961224
23.682213564487270 30.051531247805670 2.005199827492150
nan nan nan
nan nan nan
9.360284245430513 11.847923532964991 -0.791319658393311
9.011113699866868 11.414144198639699 -1.272299532630314
6.624796402310460 8.394469983528902 -1.313020305847059
5.566849119709742 7.058980030167058 -1.423866500796181
4.518001279810693 5.733115118996124 -1.418855689619987
3.713024436551403 4.713332140867506 -1.385248592649521
3.060236809751707 3.887470986761143 -1.325671149015111
24.433117272637247 30.672660140618348 10.507535593072136
22.702565708050159 28.520596169321685 8.415868845112676
nan nan nan
nan nan nan
nan nan nan
18.984130177455793 23.909119819232384 2.670974892244732
23.831669381630203 30.024999217218742 2.008968016341642
nan nan nan
12.258529226375677 15.394531306573347 -0.343498263498614
11.876339817267802 14.925257748844047 -0.999616764240227
9.416707322641850 11.842665612085925 -1.323721420851432
8.567393307355188 10.778410078171840 -1.690571531716206
5.665172922601473 7.132313335882619 -1.442638636601009
4.518457342076081 5.692705617317956 -1.412749801767938
3.733088180306957 4.704922294292491 -1.386598298975584
3.055784528041114 3.854058532344792 -1.317906577662036
nan nan nan
28.261788637071035 35.238650304444917 10.428730879381581
nan nan nan
nan nan nan
nan nan nan
16.452909315648071 20.565995550660187 2.304223526762586
24.008916618186571 30.021679897523065 2.014620299615880
nan nan nan
12.309865129784002 15.343259149475015 -0.343358644247116
nan nan nan
9.117474731163433 11.380468760785131 -1.275785762340220
8.570854684350225 10.702002768596627 -1.683503109798707
5.696213235475808 7.117670694794114 -1.443890112321331
4.545422665724092 5.683772676604089 -1.414657891721703
3.727187507273197 4.662287748000259 -1.378050158910517
3.071095603370576 3.844341996008682 -1.318424215752241
28.766511731596587 35.587137590824042 12.261293442686819
22.459118102898625 27.804088454895336 8.251654575441657
nan nan nan
nan nan nan
nan nan nan
nan nan nan
nan nan nan
nan nan nan
12.399795911919584 15.345302018439360 -0.344370883820478
nan nan nan
9.098340527722018 11.275697021352876 -1.267593122521940
8.596942774057759 10.658113784054468 -1.681309461617415
5.724742814889638 7.102357754703707 -1.444828719111573
4.572624147057146 5.677045350316487 -1.416947599666222
3.725107001800112 4.626480916653440 -1.371301627280201
3.056642436281999 3.798980168703036 -1.306518539677525
27.545815978328534 33.870955221214082 11.698103200543732
22.596757022588587 27.795389991115265 8.270100561897854
nan nan nan
nan nan nan
nan nan nan
nan nan nan
22.484410541500608 27.736227846230744 1.871219779510213
20.289312509944722 25.046274944453469 0.562630678725146
12.719209072767782 15.639825710442391 -0.351875418588510
12.427440284295583 15.291961841603401 -1.032693088585767
9.129951181923957 11.242418269847514 -1.267070188065454
8.490255741601176 10.458441086107014 -1.654010728694662
5.698492365578212 7.024509173103034 -1.432626830838434
4.568182851936699 5.635200451027889 -1.410078475832666
3.740850024170795 4.616269363704918 -1.371751529388889
3.067346427288236 3.787857381166192 -1.306000901587320
23.634077986197884 28.854645138215492 9.994038607588736
22.756605825873816 27.793240949356417 8.293045569440928
nan nan nan
nan nan nan
nan nan nan
16.445995056255132 20.136064370409205 2.274590574228383
14.916378830247973 18.269748110698913 1.236070614545847
nan nan nan
12.819340682935806 15.651024191763224 -0.353131991851995
9.986112815087189 12.200645723830929 -0.826280077163597
9.164093310097575 11.204311374434505 -1.266372942123473
6.468539218661797 7.911458573195443 -1.254766759699398
5.710479447777914 6.989277755236697 -1.429498141537630
4.600241848716924 5.634427817958342 -1.413894655740197
3.733529450011113 4.574498263770112 -1.363203389323822
3.080549829692360 3.777127267095389 -1.306000901587320
23.791204642395744 28.840521837300756 10.017849959738168
nan nan nan
nan nan nan
nan nan nan
17.161603446407316 20.848327269594758 3.315577356680442
17.516089690189158 21.294109768863507 2.412296647769683
22.882998168321269 27.828497405448367 1.888176629332928
nan nan nan
12.857352336997126 15.586127580284439 -0.352678229284625
11.830085803545517 14.351041646443402 -0.974704849068586
9.749129478126637 11.835054413461178 -1.341501192371954
6.539019594895261 7.940932794470347 -1.263053875050949
5.733586626423532 6.967776535872756 -1.429185272607549
4.593696081921174 5.586490832924799 -1.405880677934382
3.738337629396826 4.547889118925060 -1.359154270345632
3.082679849851126 3.752915870242156 -1.301342158775474
23.930089772616100 28.793243422803315 10.031826188173703
22.925182030070445 27.603711008741449 8.284047527267173
nan nan nan
nan nan nan
nan nan nan
nan nan nan
16.832125842961688 20.324867617822722 1.383029979676034
nan nan nan
12.928292158458451 15.561147633188000 -0.353131991851995
11.280489350531040 13.587415096719219 -0.925509050200219
9.580479189201215 11.547942532328371 -1.312739797265227
8.653798920195756 10.434663210718448 -1.664491492227504
5.760394734974328 6.950762042511984 -1.429811010467710
4.606907501110773 5.562861516199043 -1.403972587980617
3.759160740816185 4.540816563630262 -1.360953878780383
3.004636954693051 3.631982166590983 -1.263036940100301
24.055250385424266 28.739164407323482 10.042178949977806
23.017446921618728 27.509038623779158 8.280898212506358
18.892450512403869 22.595117297138426 5.725033097277850
16.845173220037900 20.153748039033189 4.160218163279900
17.335801069551792 20.755459882318640 3.320452130416649
nan nan nan
22.753985970189714 27.271445518286690 1.861380619736540
nan nan nan
20.216517916060067 24.152973792586184 -0.549785707587305
nan nan nan
9.309691254335878 11.138215642561020 -1.270033483318875
6.520580316453811 7.804060695894129 -1.248673292529141
5.776969535430757 6.918988182730457 -1.427620927957147
4.605883699253680 5.520312200786429 -1.397485082137814
3.805735005033769 4.562924809053932 -1.371751529388889
3.021639221247462 3.625397208147154 -1.264589854370916
17.659605855397640 20.949183523540551 7.341661033378103
18.735787289383776 22.233706137824779 6.712539461620931
19.082490001848129 22.661185385533681 5.758615480464123
16.942134886811157 20.126560456685652 4.166788410811590
17.400478431542293 20.685705541171124 3.318989698295787
nan nan nan
14.726023481803811 17.524929922644088 1.199644789000758
nan nan nan
nan nan nan
10.517881289546485 12.485961956908477 -0.855588212659646
9.721890176500466 11.549206265788596 -1.320758125598012
8.661783637083721 10.293489231396368 -1.651817080513369
5.784558805175448 6.879125997295588 -1.423553631866101
4.548081805667067 5.412514452747890 -1.374206384701876
3.816625769225730 4.543643853996061 -1.369951920954138
3.031791753131384 3.611868296820683 -1.263554578190506
17.693866095455594 20.841758429135922 7.325614252581747
nan nan nan
19.197030803679926 22.636361739111990 5.769300784205209
16.837648730159305 19.868329231072003 4.124863974180808
17.472579009195268 20.624840512111490 3.318989698295787
nan nan nan
15.034306564883119 17.771816039140987 1.219951140023021
nan nan nan
11.410793048419732 13.440872159708970 -0.307755735115057
11.166091323974340 13.161945343117589 -0.904574667703041
9.750549673783041 11.501522359722976 -1.319189322228554
6.598004953103668 7.785608120075515 -1.253060588891726
5.789387174140005 6.836280476369279 -1.418860597914894
4.720404844420748 5.577941252812362 -1.420382161582999
3.822393926117496 4.518391413060701 -1.366352704084636
3.109234728230984 3.677980158224421 -1.290471758881168
23.529860133717925 27.511011881492671 9.700020172352273
18.447407072412936 21.583877797632134 6.555073723580226
nan nan nan
16.982184673325264 19.890612189243424 4.142384634265314
17.351203121141825 20.337201547812491 3.282428895274242
15.533544369224849 18.219615323660868 2.094701121197216
15.029384200508874 17.634508579486784 1.214298856748783
14.987097393569352 17.597330818214598 0.403464732017120
13.035226966395415 15.246117892534158 -0.350130177944782
9.592835505401077 11.227798602754184 -0.773944120920653
9.813924476742017 11.494691029241778 -1.322326928967470
8.701216899798716 10.195020071149544 -1.645723613343111
5.764504463961936 6.758916722526916 -1.406971578571836
4.743667137691144 5.565912596406421 -1.421527015555259
3.840670356423116 4.507987998191056 -1.367252508302012
3.112035706337104 3.655336812203828 -1.286330654159528
23.707936722436138 27.533844873650985 9.735737200576420
18.560775056960651 21.563661727618715 6.568570786840858
19.354593319080291 22.501790637955501 5.769300784205209
20.719390602856553 24.097019684028915 5.033435347134469
nan nan nan
nan nan nan
17.121853268870488 19.955253465020384 1.378005727876711
15.048432234768057 17.544908876526321 0.403464732017120
13.081842475385759 15.192946800720067 -0.349955653880409
10.628514779925021 12.352426911330491 -0.854018133972357
9.873473200866915 11.483024893513043 -1.324941601249899
6.613379017907884 7.694193448238429 -1.245748428287417
5.766181766398091 6.713279172368650 -1.401652806760469
4.750280141555233 5.534422694665905 -1.417710835647728
3.848768986108020 4.485680343128047 -1.364553095649885
3.109686790574330 3.626852549780584 -1.280118997077067
23.757075159395203 27.396918216327681 9.716584591238835
18.656356145192543 21.522301422975449 6.575769220579861
nan nan nan
nan nan nan
nan nan nan
nan nan nan
15.403708522894910 17.826489257694757 1.234709879683531
14.968409302446616 17.328836396354799 0.399695012226667
17.865471158703791 20.602656217030255 -0.475996933170471
9.932576017286069 11.462436295379698 -0.794878503417831
nan nan nan
6.683069979109257 7.720591024278090 -1.253791804952157
5.781826452029139 6.684146554897923 -1.399775593179986
4.741324843729902 5.485131291131772 -1.409315239851160
3.842743458403300 4.447151468718465 -1.356904759802194
3.146316694227081 3.643757075585910 -1.289954120790963
23.909439978850674 27.369310478427707 9.737807752937242
40.297562767358279 46.161425869843839 14.146721905576982
nan nan nan
nan nan nan
17.286735099578724 19.837114290337233 3.230756293670460
nan nan nan
nan nan nan
nan nan nan
17.884665444099529 20.479920216875882 -0.474600740655488
9.578563473763595 10.976245658554678 -0.763476929672065
10.043753070148425 11.517427573388245 -1.336969093749076
6.669541878363643 7.650828922423687 -1.246235905661038
5.820693543146922 6.681797225205915 -1.403530020340951
4.753997414999386 5.461143624974246 -1.407407149897395
3.854405727295753 4.429300507572839 -1.355555053476130
3.161551937915239 3.635667713195459 -1.290989396971373
nan nan nan
18.777847272076333 21.359333531835315 6.565871374188731
nan nan nan
nan nan nan
17.319211504517664 19.734875065046399 3.223931610439772
nan nan nan
14.786673734159857 16.872847365761952 1.175779592953976
nan nan nan
9.905735945274138 11.263562897491379 -0.261821001372127
11.673611003637740 13.283116221760464 -0.926765113150049
10.100986552831564 11.501759686722183 -1.339235143060515
6.702755839935385 7.634960194618477 -1.247454599095090
5.834862897659741 6.651043928899831 -1.401339937830388
4.629374544593166 5.280648871505240 -1.365047552923802
3.868559006881859 4.414353547124501 -1.355105151367443
3.147495901397303 3.594089718414049 -1.280118997077067
24.006803607789827 27.106143438461427 9.702090724713093
18.864072475472639 21.314458041558808 6.571270199492984
19.696817225500595 22.271033168951799 5.779222851964789
nan nan nan
nan nan nan
20.105209457243539 22.772814378286810 2.657727219347088
15.857329321390280 17.973957652644572 1.256167621743138
15.696291820514766 17.797685374107761 0.414215414382487
13.397444676336272 15.132409469054387 -0.352782943723249
11.222634679949749 12.684880978935929 -0.887617817880327
9.479234125128370 10.721864277088850 -1.252079400312857
6.813485342030779 7.709374334734058 -1.263297613737759
5.834656717663147 6.606487863536509 -1.396021166019020
4.843023594508385 5.487537080939878 -1.422671869527518
3.889622435844284 4.408807279567296 -1.357354661910881
3.146621462201451 3.569141451256031 -1.274942616175017
19.540254052662231 21.908394109855323 7.866028418755810
18.939655507228991 21.249935062811254 6.571720101601673
19.795329807861965 22.225599860751135 5.785328739816839
17.716526250702945 19.905567499828809 4.220601866785429
18.791122005429653 21.120360865553991 3.471082638865410
nan nan nan
15.732929431816885 17.707970958891828 1.241408882082627
15.859242956961110 17.856417046889582 0.416868180160954
15.771063884875188 17.688618823337958 -0.413656937376494
10.488263313100175 11.771768682282175 -0.826280077163597
9.507328515213430 10.678293857904677 -1.250859219914390
8.726302222524099 9.804517852785480 -1.611600197189670
5.820923914709857 6.544751802178898 -1.387260835976767
4.781287245366816 5.379617360815264 -1.399011554100827
3.914048646095095 4.405400790559430 -1.360503976671696
3.152647885809150 3.550912773280086 -1.272354425723992
17.858796956182598 19.889982567451010 7.162558254167159
18.934313436895717 21.095229066168500 6.544276072971721
nan nan nan
17.785901712926368 19.843604010869861 4.220601866785429
18.620990693128888 20.782603716726644 3.426234720492316
nan nan nan
14.789168896431331 16.529169743103992 1.162381588155782
nan nan nan
15.960966794852302 17.776301062618497 -0.417007799412452
11.615031943480387 12.945164644269788 -0.911483013927110
9.879721117110179 11.018864578634110 -1.294785714259210
6.852566161185074 7.645359316363279 -1.260616488182845
5.830554525991603 6.509678649516967 -1.384132146675963
4.764684334210477 5.323397190865125 -1.388707868350493
3.956690036367704 4.422209367542722 -1.369951920954138
3.201077649412904 3.580210518274464 -1.286848292249733
18.063760774139372 19.970529516261983 7.215357339368073
25.998891016182355 28.763449223200031 8.951252354451077
nan nan nan
17.855060459550312 19.781398733858296 4.220601866785429
16.246534642019913 18.005650226774200 2.977755536761374
nan nan nan
15.253207704106229 16.928516198353659 1.194201849551492
nan nan nan
15.585700030667844 17.236936613156537 -0.405628830415343
10.904943414148956 12.068740010757129 -0.852448055285069
10.035624602294764 11.114442631041149 -1.310125124982798
8.728033093163919 9.669678978087001 -1.599413262849156
5.842657498794409 6.477551861517966 -1.381629195235319
4.809526176585189 5.335898792513631 -1.396340228165555
3.996887197162343 4.435878077103765 -1.378500061019205
3.212262753197152 3.567579214620436 -1.286330654159528
18.057049210562532 19.830527519174378 7.186369606316592
25.999440666071454 28.562995810633304 8.917059794190809
nan nan nan
nan nan nan
19.466483150761544 21.423412651845858 3.554197531067721
16.379022133539234 18.038221759486426 2.131655156122223
15.605104269966894 17.191933915530477 1.216810982648444
nan nan nan
16.170844340293346 17.759068492259065 -0.419241707436425
10.131087271574588 11.133919535791444 -0.788912204406135
10.239227894538002 11.260658489131133 -1.331565437698722
8.753722059543641 9.630339934126612 -1.597950830728294
5.851951001771977 6.442495621108193 -1.378500505934514
4.791176085951370 5.278374384583376 -1.385654924424468
4.016275488982617 4.426228848145411 -1.379849767345268
3.188361751572108 3.516273101841410 -1.271836787633787
18.019916047248948 19.644627269899491 7.142888006739367
25.901465656690828 28.256586991276659 8.849574477887650
22.302396473144181 24.347324784997795 6.418051368485462
nan nan nan
19.577328564506857 21.394872912101278 3.560778475611599
17.896636225034886 19.571859607864731 2.320260183428156
15.557217956913803 17.019422695939941 1.208437229649573
15.438077661969654 16.900927477240359 0.399555392975169
nan nan nan
nan nan nan
9.786010058308122 10.687043036872385 -1.267767434007436
7.165470563517427 7.827963731988584 -1.303027019687837
5.827739277166026 6.371014492172193 -1.367550093381698
4.895669953191970 5.355808252089033 -1.410460093823419
3.969917951157958 4.344568321572081 -1.358704368236945
3.188892541024365 3.492282944510711 -1.267178044821941
18.261891816049648 19.776367019837831 7.212769148917048
19.462284816910358 21.083691474784800 6.624358648318137
22.554973282710645 24.451151697512277 6.466135235320350
18.693170142972551 20.278888795447418 4.368276001783407
26.649573499903365 28.920351031410892 4.828707124398753
18.005334453546972 19.553238956017218 2.325489527993015
15.627353379071575 16.976769931157243 1.209274604949460
nan nan nan
10.086511872326144 10.922995423823684 -0.259517283722406
10.895280674008319 11.807102576804235 -0.841980864036480
9.435619509264889 10.232447296567649 -1.217740037670280
7.242533084912196 7.856908266653592 -1.312045351099818
5.828529108747436 6.327386645165397 -1.362544190500411
4.822590489107840 5.239019507641985 -1.384128452461456
3.975822246576329 4.320646243402030 -1.355555053476130
3.190602463917379 3.469754113072915 -1.263036940100301
24.660583664578045 26.510098999574883 9.701573086622888
18.670690285079534 20.085024638253756 6.331022473453737
22.597428647272743 24.326242342557393 6.453923459616251
nan nan nan
16.161480129618901 17.416191204023555 2.917308342432420
15.694569080796965 16.924876094853097 2.019398559463240
18.241874097725685 19.678753571345258 1.406267144247901
nan nan nan
16.279669058471775 17.506751465495373 -0.417287037915449
10.392598403816459 11.183767837627801 -0.800112099042125
9.437386143551052 10.162948897421572 -1.213382250532897
7.191583822830964 7.747196630134385 -1.297908507264821
5.846550050007112 6.302658069986913 -1.361605583710169
4.684692289446754 5.053697039444955 -1.339479147543345
3.993529001562899 4.309600484118653 -1.356454857693506
3.223696004684069 3.481275009157959 -1.271319149543582
18.985802038182921 20.274480396432530 7.442600460968086
18.255921587210214 19.501879664713062 6.167258105891403
29.071634604395765 31.077496403223588 8.271951567563971
nan nan nan
16.289942984777454 17.432190309197086 2.929495276772935
15.503344829510192 16.602049315171474 1.987325246132101
15.508348585488116 16.613219441048063 1.191061692176915
nan nan nan
16.455495160279654 17.572426667554712 -0.420219042196912
11.157580686027478 11.923250721892146 -0.855797556484618
9.486412355004354 10.144496782847918 -1.215125365387850
7.234850000904528 7.739447913384174 -1.300833371506544
5.836151679974460 6.247566855647995 -1.354096729388238
4.709002882799123 5.044489283254492 -1.341387237497110
4.049763569231625 4.339801594159625 -1.370401823062826
3.259543636223292 3.495432604445935 -1.280636635167273
18.850533823807851 19.982727468358441 7.360813642715690
27.881498804137056 29.576783673226061 9.384058183008673
23.014404106539917 24.430833993457963 6.524141169914820
18.978426895997139 20.153507388638896 4.384545186147591
nan nan nan
nan nan nan
15.943807556828993 16.960625572388512 1.219951140023021
15.813568046725594 16.833850873594226 0.403150588701249
16.091434050827193 17.063877256209054 -0.409398550205797
11.289536579311870 11.980165205447332 -0.862705902708686
9.572304168957222 10.164989113827309 -1.221574890351177
7.229165891986739 7.679456612966713 -1.294983643023097
5.815965872683003 6.182553804307557 -1.344397792555744
4.734650883155544 5.036603744679849 -1.343676945441628
4.054211629604591 4.314278004264680 -1.366802606193324
3.298173983892660 3.512198563418805 -1.290989396971373
18.946782365211760 19.944817468259252 7.371166404519791
18.629841082350730 19.618036955508007 6.245990974911756
23.128118478397589 24.371951587678755 6.531010293748376
19.103030514903764 20.144472020910236 4.397059943350810
28.828418489563294 30.410688315177360 5.145079939878516
18.386829684316467 19.409570208238726 2.339085823861650
16.811994023181757 17.753341756630562 1.281393552652237
nan nan nan
16.357702503526088 17.219356001679017 -0.414564462511233
10.805341352349082 11.382474619027134 -0.822511888314105
9.550534043048865 10.067681484274519 -1.214079496474878
8.631404273283122 9.101963259110295 -1.540184761954254
5.831793205936004 6.154026513948840 -1.342833447905342
4.757128926200922 5.023493078259755 -1.344821799413888
4.092771852797464 4.323448064782482 -1.374450942041015
3.268541606636948 3.455177671396465 -1.274424978084812
18.977015487837257 19.830576613081742 7.354601985633230
18.793833092553502 19.652883912333369 6.277934024628585
23.383955178016738 24.469911325108708 6.579094160583265
nan nan nan
nan nan nan
nan nan nan
16.665730222770492 17.476293855348640 1.265588093866868
16.528201993672251 17.344194883701114 0.418194563050187
11.351539224403808 11.866261909650516 -0.286638323325944
10.817405310494397 11.315813356329341 -0.820418450064387
9.570479815521727 10.018435168049878 -1.212162070134430
7.274336623701171 7.617480165050639 -1.293277472215425
5.853239238016336 6.133632264305758 -1.342833447905342
4.759731408478642 4.991228326344349 -1.340624001515604
4.044641051900779 4.242840895997233 -1.353305542932692
3.293907382443418 3.457734882544311 -1.279601358986862
20.640563497177077 21.433739364028686 7.973179503428254
28.657312474766819 29.768953051172019 9.539724312614627
20.059556480775488 20.852246338772911 5.624285947719034
nan nan nan
nan nan nan
nan nan nan
15.937966371444771 16.602547504436441 1.206134447574883
15.951604591240715 16.628368998844721 0.402208158753636
16.502272999543830 17.136422580451601 -0.415262558768724
10.805013910817793 11.228070748703519 -0.816650261214896
9.635413102536535 10.019673541205147 -1.216171234300822
7.404111632119218 7.702077866964699 -1.311801612413007
5.861230527998835 6.101367507006195 -1.340017627534618
4.774897152585973 4.974000757501951 -1.340242383524851
4.046544897938667 4.216750584441064 -1.349256423954502
3.274601821008181 3.414723205382218 -1.267695682912146
19.108118521197738 19.704281063078138 7.354601985633230
21.395812924676051 22.071056828371074 7.096755862440253
20.222378705672952 20.875165180175419 5.649472735108739
19.139081161710532 19.770703211649803 4.358264196020832
16.039513385863479 16.574632166835610 2.831999802048817
21.427802220319990 22.158160380228775 2.696772992098039
15.880605299532647 16.427626023616259 1.197446678838555
nan nan nan
11.702116983492131 12.067216446242540 -0.293409857023610
11.027610559109418 11.379611328841250 -0.830466953663033
9.702208272252385 10.018897865385883 -1.220180398467214
8.539657532166650 8.821480674598236 -1.507523777921674
5.870131503436897 6.068092901338550 -1.337201807163894
4.820885702267669 4.986945140043407 -1.348256361330666
4.024676108554081 4.164763806523374 -1.337109067019933
3.293211364007495 3.410220197149351 -1.270283873363172
25.475913354901358 26.087913910925096 9.770418952620158
14.688138842437370 15.046240500429345 4.854443752740607
20.281414212858571 20.790395464905714 5.645656555201207
19.316230474233777 19.807904738248489 4.382042234706947
29.175699250588885 29.939236907992267 5.132893005538001
nan nan nan
16.687376507788866 17.142038581482794 1.253760167755962
17.932967261186551 18.434436479163377 0.448910798379807
11.698063265014902 11.979082481984905 -0.292257998198750
11.001704567155640 11.273865537191668 -0.825547373776196
9.419969681002904 9.659745069173288 -1.180437379774282
7.367632551962562 7.557806420657171 -1.295958597770338
5.865087756608892 6.020680992641099 -1.331257297492365
4.893041986839660 5.026357167651311 -1.363521080960789
4.103066143943052 4.216329804897968 -1.358254466128257
3.337418859939967 3.431943126623865 -1.282707187528093
25.794896932269292 26.221600300034432 9.855829237503990
31.844550439293915 32.393938672534645 10.487218153510986
15.389908603581123 15.666353256250227 4.268778844564061
15.628894949684948 15.915187824280000 3.532915958468574
nan nan nan
nan nan nan
24.379644943075640 24.869611261916923 1.825164138016423
18.000004924989025 18.374583399740136 0.448980608005556
11.669701657311267 11.866885925424770 -0.290512757555021
11.022792009693635 11.216874640258313 -0.824186638913879
9.932454996259118 10.114399471656741 -1.240226219299176
8.471706071035245 8.629904673142580 -1.484856080048317
5.825201613733553 5.938124910620972 -1.317491064568824
4.858332085533835 4.955971698137528 -1.349019597312172
4.117758884260512 4.201981743931816 -1.358254466128257
3.354784827496568 3.425793473092732 -1.284777739888913
25.873553062520152 26.127681055681755 9.852723408962760
nan nan nan
20.514427876733922 20.737625140669181 5.670080106609405
23.037610450079473 23.296391022808258 5.189244074314539
22.362761664658983 22.629755771751991 3.906399933508597
16.700031571887560 16.911220073518496 2.079361710473628
16.112095525886097 16.321545754036503 1.201947571075448
nan nan nan
12.427252972153564 12.549312468609029 -0.308279307308176
10.693805354606173 10.806381096392794 -0.796762597842577
9.450752833045257 9.556912768171914 -1.175905281151404
nan nan nan
5.837564586779939 5.909323133004354 -1.315613850988342
4.745953798170832 4.807649131606579 -1.313147506181382
4.098181498592396 4.152905582820031 -1.347006913411064
3.350445173404977 3.397555873257166 -1.278566082806452
25.978239226249844 26.050885636321802 9.857899789864810
21.642727972653564 21.710827634564616 7.077410071766681
15.429626316963088 15.488985863991180 4.249697945026406
19.692648050273174 19.775309668485651 4.420212244176764
16.611026048369755 16.692401835950701 2.891472041630529
21.560883102212006 21.681639319004951 2.675158367896620
16.115463193463921 16.211379146982008 1.197970038400984
10.671230270819548 10.742240288564050 0.264299243086221
11.740966914651530 11.773799744070594 -0.290233519052025
11.176960967029142 11.216044173625951 -0.829838922188117
9.360337815263634 9.399628654608849 -1.160565870427816
8.439315302440326 8.477698855873946 -1.468769326718837
5.892984925604817 5.923921585185739 -1.323435574240353
4.877587460365946 4.906617867156773 -1.344821799413888
4.101663824375163 4.127516642326838 -1.343407696541562
3.330975723015143 3.354311873797953 -1.266660406731737
28.120971739208716 28.003424905877726 10.633839287082166
21.646589311969468 21.563631541361072 7.054015162114919
15.959118976137917 15.909060515679093 4.380211297863962
14.533292222769537 14.497824005662546 3.251333921396158
19.555352601258441 19.514438796425353 3.392111304338875
21.777416316878959 21.747030515848788 2.692589516446152
21.078503377818894 21.063792940719228 1.561704934289444
16.791330154774265 16.785469897582786 0.414424843259734
26.032325520405671 25.923509315277926 -0.641271222131545
10.897728086458208 10.859754077828645 -0.806287741878793
9.442469538230949 9.416137937695654 -1.166666772420152
nan nan nan
5.965354133007739 5.954951701134582 -1.335011724653330
4.890518165551510 4.885399506560272 -1.343676945441628
4.131209488499969 4.128326366475752 -1.348356619737127
3.335834036041600 3.335834036041600 -1.264072216280711
29.339003340083472 29.002973957722357 11.054161416328661
21.788227882937253 21.553723072647646 7.075610463331930
nan nan nan
nan nan nan
20.537049333179940 20.351501700674014 3.550053973391946
17.368529444591104 17.223629301401608 2.140022107425999
21.199520389603631 21.029999322117483 1.564949763576506
11.657072529370044 11.571933394705727 0.286708132951694
12.602063342261353 12.462077317555554 -0.309361356507288
nan nan nan
9.580042270747660 9.486863051685701 -1.179565822346806
8.371370250544004 8.292841421805212 -1.446832844905911
5.990313101503100 5.938264532493997 -1.335950331443572
4.893603677640632 4.854472182963300 -1.339860765534098
4.135912130602168 4.104271939647300 -1.345207304976313
3.352941088397954 3.329614474252163 -1.266142768641532
27.089908578810959 26.611886652111501 10.175211939160500
21.885991660948626 21.507304105787028 7.084158603396997
nan nan nan
21.652685520206433 21.300331974773918 4.810672668917180
20.675157087125172 20.352916723113054 3.562240907732461
19.324660523984608 19.036755918931508 2.373250875018732
16.594501660458494 16.358689544350653 1.221207202972851
12.730510540642397 12.553988569137521 0.312083931911504
12.624774922338991 12.402001219911519 -0.308907593939918
8.320769821732769 8.179652896193845 -0.611493312742556
9.233638398274799 9.083379659060315 -1.133198967205052
8.432781785613351 8.298451945826917 -1.452682573389358
5.987452357544288 5.896190735908769 -1.330944428562284
4.873317177772112 4.802389274620818 -1.329938697774517
4.173092119074953 4.113791411922243 -1.352855640824004
3.366714636132025 3.321190804752965 -1.267178044821941
22.622004790880045 22.068182890680294 8.468041517664274
22.065535261808126 21.532853950202405 7.117901261548576
16.296264007835553 15.913967337125964 4.427531928717346
14.825617453178683 14.482876914509905 3.282620814404205
20.676520284387884 20.212627713508819 3.550297712078756
nan nan nan
21.292857967919517 20.844228174210500 1.561600262376958
11.604126574052978 11.363600308292396 0.283496890167233
12.418923523163130 12.114888938800989 -0.302834156499743
8.323546199903561 8.125445172974395 -0.609609218317810
9.282391573721341 9.067800046713495 -1.135290705030995
8.258673465247330 8.070565811864848 -1.417827941175486
5.996698888763834 5.864205801245511 -1.328441477121641
4.833924114547117 4.730423869590321 -1.314673978144394
4.179071149803106 4.091020225373132 -1.350156228171878
3.385187340832966 3.316177977012837 -1.269766235272967
22.838435193665347 22.108807162734816 8.517217136233754
23.730144315017622 22.988079899568291 7.627640350691775
15.627115081123900 15.149017712569023 4.230617045488752
15.752313081989781 15.281054892152039 3.475973813193930
25.934519029726303 25.167429777377695 4.437262793381420
nan nan nan
21.589057244538139 20.972458093482974 1.577405721162327
12.845827523589254 12.487659921000834 0.312712218543246
10.822738098261635 10.480639738643630 -0.262972860196988
8.363311527410300 8.104612701054577 -0.610341921705211
8.829261305468320 8.562127739623214 -1.076024799962588
8.323818682373556 8.074796986043900 -1.423921408345743
6.006813040740554 5.831179993766624 -1.325938525680997
4.893475346548469 4.753714137422280 -1.326122517866986
4.145123286647318 4.028141980221667 -1.334409654367807
3.409783687549619 3.315869747042857 -1.274424978084812
21.036719172662504 20.222882684165643 7.818923352547151
37.986283815907072 36.542250332191131 12.168952235785722
15.348933140709049 14.775768983595000 4.141318435652528
nan nan nan
28.137722512535241 27.115396100980867 4.797996049860656
nan nan nan
21.858255426853241 21.093531534570147 1.591955116997865
nan nan nan
12.038294350897882 11.576618603771546 -0.291524997128384
nan nan nan
8.880621958846060 8.551986115106603 -1.078639472245017
8.387695261189560 8.080122626620287 -1.430014875516000
5.992999125708388 5.777273464268291 -1.318429671359066
4.941124232383765 4.766590891240176 -1.334518113663554
4.182997611965712 4.036652985975868 -1.342057990215499
3.421337459405746 3.303947179375083 -1.274424978084812
21.208449832465529 20.253075821065487 7.857746209312530
29.239793609454736 27.942153696174550 9.337268363705149
15.312713271455623 14.643376448036909 4.118421356207343
16.187067802192132 15.490333053766641 3.548559404972597
20.656181429757773 19.773991909224229 3.511055783502299
25.530605980856468 24.457322750152805 3.093157310114389
22.261135882200222 21.340204756879668 1.616134328782105
nan nan nan
10.905393920258307 10.417779887121979 -0.263252098699985
11.289826543314041 10.792563093654783 -0.818534355639641
8.913251671523474 8.526621672153995 -1.079162406701503
nan nan nan
6.016404410840528 5.761466940964947 -1.319368278149307
4.959738595738873 4.752896041281385 -1.335281349645061
4.234343115888052 4.059170636310037 -1.354205347150067
3.428092630511995 3.288571365470230 -1.272872063814197
22.991991941520915 21.803337570792745 8.490299955543090
22.543552892478154 21.393032902824512 7.175038829351919
22.965879491245794 21.809046756750174 6.156261426828842
22.176423453756264 21.074083770937207 4.845401120156111
28.215170979447098 26.822031967374254 4.779959387036694
nan nan nan
22.678335483433123 21.588740733493577 1.640941572041261
23.136663297710147 22.032746695323581 0.557674195296957
nan nan nan
11.486768099883582 10.904346770695877 -0.830048266013089
9.230418304402738 8.768529821428816 -1.113850392315072
8.242481849657690 7.832766782359293 -1.396135198049369
5.997829531403508 5.703676667175541 -1.310920817037135
4.963499227864643 4.723373746487244 -1.331846787728283
4.183559432815080 3.982557714792813 -1.333509850150432
3.438152241623754 3.275252567170681 -1.272354425723992
21.493464688991352 20.247335073970547 7.912098208784059
22.630855329819987 21.326239220052372 7.179087948330108
23.024727359621849 21.712584794338987 6.151682010939805
nan nan nan
26.325246151322460 24.851066597906811 4.445062431359349
24.136523604426142 22.800848208357984 2.904900905779447
22.917563986983751 21.664487390392672 1.652769498152166
nan nan nan
12.213630524401744 11.505519155499249 -0.292886284830492
10.956516536526458 10.328509890925197 -0.789121548231107
9.443580625647879 8.908520435136364 -1.135813639487481
8.304422979348931 7.836645535293540 -1.401984926532817
5.974616361916842 5.642017956787304 -1.301534749134721
4.985664326474756 4.711412842668030 -1.333373259691295
4.187522693642387 3.958559148996999 -1.330360535389618
3.446757254650575 3.260576030016386 -1.271319149543582
21.481457935936039 20.087932632747240 7.880522285281551
23.097879364175324 21.614613220262576 7.303260930327921
15.554063550836998 14.565422427174484 4.142081671634035
23.274332607538945 21.810232426147927 5.051894614009217
23.390771592608353 21.927015380123599 3.936623530673074
24.518211854371636 22.999986845185141 2.941157694762472
23.128472074763689 21.711485807824527 1.662503986013354
nan nan nan
11.085445401336811 10.369947886188630 -0.264962434530838
12.697004409101831 11.885803874815155 -0.911483013927110
9.166360061007902 8.586734816064835 -1.098859604562474
8.275236186299736 7.754672395890964 -1.392479117747215
5.972660310713644 5.600859789227534 -1.296841715183514
5.020690910416087 4.711445648706656 -1.338334293571085
4.202735935140330 3.945251606542441 -1.330810437498305
3.458117790159487 3.248524737382532 -1.271319149543582
21.518230540863730 19.988976201723304 7.869651885387246
23.181752938677736 21.541814179797143 7.305960342980048
15.578932976361262 14.486975132944666 4.135212547800479
17.215928167018575 16.020439847172543 3.724704612607897
19.282570442967856 17.949853507614410 3.234656112659425
15.445948609623096 14.388467249937879 1.846830188822877
15.672597338232684 14.604708721293191 1.122710933323631
10.798986477025679 10.070217804823045 0.257737138265803
12.378631723446464 11.498909004621927 -0.294910763977217
12.322969512280137 11.455218567073844 -0.881756190781118
9.331945948587357 8.680889264960838 -1.115070572713539
8.389447920996535 7.806877704496566 -1.407103438955833
5.984946376266262 5.573246218013534 -1.295277370533112
4.976781710279078 4.637677194116029 -1.322306337959456
4.145209316420492 3.864117844340055 -1.308315332063919
3.492038379754666 3.257518122190478 -1.279601358986862
21.075815505269315 19.434585900275575 7.681749258642816
26.522125916155755 24.473913396466809 8.331737150788072
16.639058662277051 15.364838693911889 4.402345141327642
15.948287558843766 14.732124713514990 3.438742410514355
nan nan nan
23.549068253114378 21.783783999013096 2.806589227960088
15.833425969568724 14.651650321810887 1.130561326760072
20.938928206665853 19.389660117234513 0.498126584532946
12.459850567356302 11.493593436004955 -0.295888098737705
10.667827536149806 9.847435783934314 -0.760860131859917
9.277306407476392 8.569850179597756 -1.104960506554810
8.447264493824003 7.805837285738413 -1.412221951378849
6.026119116381550 5.572438007070670 -1.299970404484319
4.951151951458256 4.581607746948899 -1.311239416227616
4.184413789018701 3.873453311314929 -1.316413570020298
3.523229159283455 3.263688368075107 -1.286848292249733
40.011004697043241 36.650486159043254 14.538901039589000
26.330099181679092 24.127090695143202 8.244906043811341
15.173240715946051 13.913460297766306 4.001646251036898
15.919913529774107 14.608372520372923 3.422160357220091
15.456028142294853 14.187673518907188 2.576074180898007
20.203225548485435 18.558304507089595 2.400094843785010
15.877120068877202 14.589535171181724 1.130037967197643
23.645725307899895 21.743359030615412 0.560710914017045
12.625232883882468 11.564841387240312 -0.298855007832043
10.730110177885980 9.835780250135068 -0.762848898197149
8.951850514524825 8.211486658564892 -1.062777127064944
8.515414041471006 7.813882924073137 -1.419046634609537
6.064448869481254 5.568737880788220 -1.304037700575365
4.968560192511341 4.565625463831610 -1.311621034218369
4.157737791790073 3.821896843447090 -1.303816310977042
3.544552707890428 3.260525224640468 -1.290471758881168
34.808018275100572 31.650656311085651 12.606040410763375
26.153273900933495 23.797648211485544 8.163473762138860
20.485299115850790 18.653263453044612 5.385393085507601
15.051865765006868 13.710557411081364 3.224740062339319
15.596416514378117 14.216546385454466 2.591185979480246
16.365627393981200 14.928165024887416 1.937995095736927
23.506857398517070 21.449668123413392 1.667737581637648
23.846998024972578 21.775301525092281 0.563677823111383
12.588602665154520 11.450731426527989 -0.297039957562565
10.751085084055996 9.786165309548533 -0.761906850984776
9.077672850650570 8.268739352380379 -1.074281685107635
8.459001436684671 7.707901027699366 -1.405153529461350
6.089689073614755 5.552859007118980 -1.305289176295686
4.962713364027948 4.528404322423092 -1.305896764357073
4.185446239829250 3.820498235228709 -1.308315332063919
3.548780676288513 3.241618056737851 -1.287883568430143
22.856096548949687 20.644823129365651 8.252704072138975
26.302696093085530 23.766309679303504 8.184169259138496
15.456401597885058 13.975733871081212 4.050493353853294
15.984891502558936 14.463741263726067 3.414338633968079
15.922631475931230 14.412461108117178 2.637008852600581
20.274703365656411 18.364643594697686 2.393296695850693
23.338859806983375 21.147545507768147 1.650571387989962
12.045129533794631 10.921856518531159 0.283811033483104
12.615140846235041 11.394655730684095 -0.296725814246694
10.900751048276859 9.853040791439392 -0.770071260158676
9.007481284841409 8.147454827095045 -1.062602815579448
8.338659391421832 7.545137976354567 -1.380779660780321
6.128070891855638 5.548804625557710 -1.309356472386733
4.956667488882980 4.491279872063989 -1.300172494495776
4.221858593639912 3.826805135787795 -1.315513765802923
3.522871064568196 3.195464979883472 -1.274424978084812
22.911473191825404 20.542857560505617 8.245457138876105
34.492171345649595 30.948055354171014 10.698672144594219
15.709605966372729 14.105324741420310 4.103919872558725
23.185953794079371 20.825490452336737 4.936133109879445
15.854733774804622 14.250633094660971 2.617509757655758
20.230547199357389 18.196495079277444 2.380571957409535
23.246247783148746 20.916327038914361 1.638848133791543
nan nan nan
12.852826475465610 11.528133102419861 -0.301368154359012
11.334906362487073 10.173801344939589 -0.798228004617379
8.983987179091393 8.069365654901770 -1.056501913587112
nan nan nan
6.167967287606308 5.545870498537700 -1.313736637407859
4.976693105990642 4.477890003937273 -1.301317348468036
4.203325593870757 3.783363189397702 -1.305615919411792
3.522520496983070 3.172805104226796 -1.270283873363172
27.375128299607372 24.381780317219715 9.822700399730866
31.256391375729919 27.848428882176588 9.664797098829816
nan nan nan
23.231302542541279 20.727446795138995 4.931127206998158
16.144302000913374 14.409340450390632 2.656995424919025
20.261250149857648 18.096567716003484 2.376737104728638
23.019753732235138 20.567580700945747 1.617809079381880
nan nan nan
12.848190433304044 11.443298208144514 -0.300321009972775
12.264949280942488 10.931511720297721 -0.861031152108912
9.070088881056432 8.089677414390826 -1.063300061521430
8.333363042426463 7.435198210266914 -1.371273851994719
6.143082968616883 5.484837758085467 -1.304350569505445
4.982045429447798 4.451334389492452 -1.298646022532764
4.244112735662612 3.793342050457054 -1.314164059476860
3.514855177516608 3.143747271810905 -1.263554578190506
31.341673287441207 27.709272500286016 11.209452843390174
21.257909795851361 18.807409868040985 6.552824213036788
15.687161292917160 13.888592955432014 4.072627197316972
16.726527093267507 14.814001552086570 3.538860468140103
15.573521748109421 13.802535118136410 2.555112653832322
15.727293145807941 13.948625130165974 1.839160483461083
16.074046060022116 14.261175246568364 1.126165106435665
nan nan nan
12.861094261053019 11.374533954403827 -0.299692723341032
11.001836641634824 9.737026546321310 -0.769966588246190
9.162407225948000 8.114769677482871 -1.070795455397728
8.394925819771485 7.437657636959707 -1.377123580478167
6.230183714570204 5.523642728773824 -1.318742540289146
4.997553133808454 4.433916686511051 -1.298646022532764
4.258785603812009 3.779797787285444 -1.314613961585547
3.531585134070619 3.136590421098736 -1.265625130551326
24.714147671198649 21.704267876476013 8.813306123831037
21.682114945654789 19.048203409255443 6.663050229665282
16.788317679721565 14.759283798581265 4.345102442714679
16.220873581693507 14.270462361591546 3.421847488290010
15.681214097527743 13.800547899116737 2.564862201304734
16.218467213236060 14.283416832755513 1.890756683167696
15.984356603086855 14.082192679382819 1.116430618574478
12.115448696209489 10.681204825400643 0.281926173587878
12.899217910160298 11.328251519894621 -0.299657818528158
11.407817455417499 10.025540780625860 -0.795925222542690
9.166739286229207 8.061685247816296 -1.068006471629803
8.365691641278266 7.359793977451035 -1.368105249066186
6.273149486290972 5.522746561435819 -1.323748443170434
4.980591481798935 4.387893153637513 -1.290250426736196
4.286573578785136 3.777793521701029 -1.319112982672424
3.543961242549579 3.125521588586968 -1.266142768641532
24.831982972549390 21.654688395409195 8.828317628446982
21.962874375500700 19.159436470024822 6.728735937533690
15.384412662905499 13.430138329573946 3.969590339813638
15.889745825047839 13.881055731477803 3.341753042189412
24.697812683072303 21.583258908573523 4.027294322166504
16.172240246210606 14.142775627386687 1.879600748095996
16.054460419556793 14.044721752793558 1.117896025349280
16.886132813492786 14.782691803297821 0.391736714891266
13.032124153287471 11.364641639038350 -0.301821916926381
12.065744130832384 10.529328479933712 -0.839259394311847
