# This PCD file was generated using the MATLABÂ® pcwrite function
# from Computer Vision ToolboxÂ®.
# .PCD v.7 - Point Cloud Data file format
VERSION .7
FIELDS x y z
SIZE 8 8 8
TYPE F F F
COUNT 1 1 1
WIDTH 970
HEIGHT 1
VIEWPOINT 0 0 0 1 0 0 0
POINTS 970
DATA ascii
-0.799183361670807 1.709179003723952 -0.165072976764065
-0.803282638507962 1.717164791796471 -0.232770445903832
-0.796596993953679 1.701325412145386 -0.297538352506519
-0.788966204340977 1.683497543588396 -0.361392237243176
-2.269202681276149 4.839830377380548 -1.234081484130443
-1.917182028510129 4.085318371091433 -1.209202578718977
nan nan nan
nan nan nan
nan nan nan
-0.800556928284114 1.727809780418651 0.301605648597565
-0.803430062833151 1.732425135569051 0.234476616711504
-0.796923925468535 1.716825632148722 0.165595911220551
-0.797489612256424 1.717259423981478 0.099228973036622
-0.792319391137848 1.704568406352498 0.032810524102093
-0.794081856521348 1.716976321283684 -0.033019952979340
-0.790356869241410 1.707357570506560 -0.098600941561706
-0.794887555529243 1.715573801503695 -0.165421599735055
-0.795614016796990 1.716356302988092 -0.232282968530211
-0.787327840474488 1.696928094604501 -0.296286876786197
-0.783084894605816 1.686241293142998 -0.361392237243176
-2.261326865521242 4.867162259160200 -1.239030407326008
-1.902095324175549 4.090233989889422 -1.208684940628772
nan nan nan
nan nan nan
nan nan nan
-0.796169252908488 1.734184162585676 0.302231386457726
-0.795720125549462 1.731611551263003 0.233989139337883
-0.787596014805292 1.712356548050718 0.164898665278569
-0.789820588668469 1.716403959080198 0.099019629211650
-0.786364509936998 1.707323732342432 0.032810524102093
-0.789749791678150 1.723373532973934 -0.033089762605090
-0.782726887640432 1.706475230661006 -0.098391597736734
-0.787231662615216 1.714716659310900 -0.165072976764065
-0.781332365063141 1.701083990840913 -0.229845581662108
-0.784700185893129 1.706845203012562 -0.297538352506519
-0.778835424523438 1.692531475252618 -0.362155473224682
-2.240248860474682 4.866175300633507 -1.236780896782570
-1.890231601774462 4.102112239593364 -1.210237854899387
nan nan nan
nan nan nan
nan nan nan
-0.787657209195242 1.731558483483305 0.301292779667485
-0.794606268097109 1.745218449420700 0.235451571458745
-0.783266437531704 1.718721333306409 0.165247288249560
-0.780510140788549 1.711881355249068 0.098600941561706
-0.783720898397148 1.717335098770344 0.032950143353591
-0.782075846682329 1.722478171920144 -0.033019952979340
-0.780070793539814 1.716470239930762 -0.098810285386678
-0.784541246426127 1.724708458238704 -0.165770222706046
-0.774567455233902 1.701994198284713 -0.229601842975298
-0.777099680361318 1.705978600699962 -0.296912614646358
-0.766406961340550 1.680949060221651 -0.359102529298657
-2.230527825156995 4.889922544702274 -1.240830015760759
-1.883924570778512 4.126258892390079 -1.215414235801437
nan nan nan
nan nan nan
nan nan nan
-0.778361588334099 1.727093643590789 0.300041303947163
-0.788509477833456 1.747981510446955 0.235451571458745
-0.773982621172196 1.714181491470489 0.164550042307579
-0.774529804578278 1.714595414709569 0.098600941561706
-0.776073790454260 1.716416137020363 0.032880333727842
-0.771136364135015 1.714255575291145 -0.032810524102093
-0.774074441809389 1.719182737826112 -0.098810285386678
-0.770329821429845 1.709272088962395 -0.164027107851093
-0.769437614415794 1.706497221243720 -0.229845581662108
-0.772765132652565 1.712281804652543 -0.297538352506519
-0.758918245623285 1.680035727990640 -0.358339293317151
-2.218260547771313 4.908333597349761 -1.243529428412886
-1.867917334427947 4.129289596791843 -1.214378959621027
nan nan nan
nan nan nan
nan nan nan
-0.772630059726253 1.729665287485730 0.300041303947163
-0.785642844136371 1.757972644600445 0.236426526205986
-0.766367189197245 1.713235309351802 0.164201419336588
-0.772104454942456 1.724445946873604 0.099019629211650
-0.765172698732343 1.708164908049251 0.032670904850595
-0.765147797458450 1.716936899700344 -0.032810524102093
-0.769695922332584 1.725522326768153 -0.099019629211650
-0.764358655280620 1.711950628373263 -0.164027107851093
-0.763476139798129 1.709172663176356 -0.229845581662108
-0.764364570574918 1.709558830251495 -0.296599745716278
-0.757861018935328 1.693426526137853 -0.360629001261670
-2.201113751750967 4.916046868422219 -1.243529428412886
-1.853492043861417 4.135784688033478 -1.214378959621027
nan nan nan
nan nan nan
nan nan nan
-0.767084376151539 1.734292054614629 0.300354172877243
-0.773876318839534 1.747998225943339 0.234720355398314
-0.760382212968869 1.715899992449564 0.164201419336588
-0.765778858512618 1.727264268398412 0.099019629211650
-0.757583194962506 1.707169842546588 0.032601095224846
-0.760765120267005 1.723256021442860 -0.032880333727842
-0.758824475646841 1.717237464258834 -0.098391597736734
-0.759990031508651 1.718252534153285 -0.164375730822083
-0.760718534733841 1.719088476746935 -0.230820536409349
-0.751192511627692 1.695961324937287 -0.293783925345554
-0.747170984593999 1.685292992522605 -0.358339293317151
-2.176038760543570 4.905886562318125 -1.239030407326008
-1.843747606851840 4.152823323092570 -1.217484788162257
nan nan nan
nan nan nan
nan nan nan
-0.761818629102202 1.738768445286397 0.300667041807324
-0.767769951638975 1.750688909007530 0.234720355398314
-0.754387971723191 1.718543767847424 0.164201419336588
-0.755226240253742 1.718822975040481 0.098391597736734
-0.754838371637461 1.717126401380890 0.032740714476344
-0.753142767934373 1.722236755099687 -0.032810524102093
-0.748020305614355 1.708897863390431 -0.097763566261819
-0.753987580749249 1.720894926249886 -0.164375730822083
-0.748337548782769 1.707188668313316 -0.228870626914867
-0.746855290429914 1.702190977936362 -0.294409663205714
-0.742862541142984 1.691485920254111 -0.359102529298657
-2.158116848915398 4.911668351845744 -1.238580505217321
-1.834684483106201 4.171612575194877 -1.221108254793693
nan nan nan
nan nan nan
nan nan nan
-0.751812479669686 1.732356652645861 0.299102697156921
-0.761654229403848 1.753358260479848 0.234720355398314
-0.749973465331478 1.724820884867547 0.164550042307579
-0.747627738312425 1.717786078044252 0.098182253911763
-0.747243209675742 1.716083971596303 0.032670904850595
-0.743947189869192 1.717515412059518 -0.032670904850595
-0.747611988602385 1.724325607118092 -0.098496269649220
-0.749562318165660 1.727171739710205 -0.164724353793074
-0.741583188698841 1.707969589957156 -0.228626888228057
-0.740908984985789 1.704787619082925 -0.294409663205714
-0.735387307505022 1.690468118251711 -0.358339293317151
-2.146402553437595 4.931679544817734 -1.241729819978135
-1.824741024362115 4.188617919096266 -1.224214083334923
nan nan nan
nan nan nan
nan nan nan
-0.742161637763197 1.725766795433368 0.297538352506519
-0.755529226652296 1.756006247835090 0.234720355398314
-0.742371986443680 1.723768466944303 0.164201419336588
-0.741326715927460 1.720514732650963 0.098182253911763
-0.744416134502224 1.726026676561204 0.032810524102093
-0.736370599179670 1.716426377463920 -0.032601095224846
-0.739224157904951 1.721419149825667 -0.098182253911763
-0.738807979338606 1.718794962540023 -0.163678484880102
-0.736400983853354 1.712371404548501 -0.228870626914867
-0.733391582401413 1.703734660113279 -0.293783925345554
-0.724820765556379 1.682206750246307 -0.356049585372633
-2.130717582855474 4.942720930740705 -1.242629624195510
-1.813935771063551 4.203830776742769 -1.226802273785948
nan nan nan
nan nan nan
nan nan nan
-0.738926380907384 1.735745500396672 0.298789828226841
-0.747060454096499 1.753154231833882 0.233989139337883
-0.734787012199135 1.722684041786724 0.163852796365597
-0.737185687591139 1.726637297033049 0.098391597736734
-0.732102500170767 1.713903044136681 0.032531285599096
-0.733502609692840 1.726348159320527 -0.032740714476344
-0.737119153135168 1.733178743220092 -0.098705613474192
-0.729682129420829 1.714030660682031 -0.162981238938121
-0.729641336551147 1.713105153215941 -0.228626888228057
-0.727439970526428 1.706284294743718 -0.293783925345554
-0.718944352326788 1.684726598298190 -0.356049585372633
-2.113451285982862 4.950128410339384 -1.242629624195510
-1.796973079675515 4.204807695713177 -1.225249359515333
nan nan nan
nan nan nan
nan nan nan
-0.738077924948439 1.748978074955384 0.300667041807324
-0.736609910833229 1.744649297048857 0.232526707217021
-0.729070345945630 1.725111211425482 0.163852796365597
-0.733012187828223 1.732751276674880 0.098600941561706
-0.724856137112774 1.712638266846674 0.032461475973347
-0.729325556352687 1.732457128577498 -0.032810524102093
-0.724387493104934 1.719048877997633 -0.097763566261819
-0.723994186881533 1.716440949498684 -0.162981238938121
-0.728587314907304 1.726488757338877 -0.230089320348918
-0.719471729058835 1.703228126378064 -0.292845318555312
-0.714882805681841 1.690717949469325 -0.356812821354139
-2.092469000404899 4.946341127828378 -1.239930211543384
-1.787539249197932 4.221417174901270 -1.228355188056564
nan nan nan
nan nan nan
nan nan nan
-0.731968355532605 1.751543792335700 0.300667041807324
-0.724389544803473 1.732558260991946 0.230576797722539
-0.726120925892297 1.734997315432473 0.164550042307579
-0.723872415399124 1.727930835201758 0.098182253911763
-0.725057355897231 1.729912100736594 0.032740714476344
-0.723273709124132 1.734992395141249 -0.032810524102093
-0.716075041118661 1.716037330768042 -0.097449550524361
-0.719534104227464 1.722634618560283 -0.163329861909111
-0.717963786787846 1.718031939994252 -0.228626888228057
-0.715046589715337 1.709373895197553 -0.293471056415473
-0.708976743368092 1.693203055714368 -0.356812821354139
-2.078202186937098 4.960804644852178 -1.241729819978135
-1.770551658430370 4.222286466579820 -1.226802273785948
nan nan nan
nan nan nan
nan nan nan
-0.723583946811856 1.748612346164349 0.299728435017082
-0.718337374628785 1.735076297043863 0.230576797722539
-0.718534679943149 1.733840190907699 0.164201419336588
-0.713244697047102 1.719378136367603 0.097554222436847
-0.717481338693516 1.728738598112162 0.032670904850595
-0.711109108190843 1.722719231826619 -0.032531285599096
-0.712368712610486 1.724064123635037 -0.097763566261819
-0.716562565632094 1.732500273427037 -0.164027107851093
-0.705131166712215 1.704019373579126 -0.226433240046764
-0.709831348928971 1.713684469581911 -0.293783925345554
-0.701558166369943 1.692040434491924 -0.356049585372633
-2.065353244946732 4.978828763731814 -1.244429232630261
-1.755061496523935 4.226656969245994 -1.226284635695743
nan nan nan
nan nan nan
nan nan nan
-0.721220396517542 1.760266968549748 0.301292779667485
-0.712276451739879 1.737573191738658 0.230576797722539
-0.713990762962237 1.740024273963205 0.164550042307579
-0.708756281394727 1.725552322792702 0.097763566261819
-0.711442543717618 1.731232543295339 0.032670904850595
-0.705091363546199 1.725190970446412 -0.032531285599096
-0.707858784513734 1.730237339232934 -0.097972910086791
-0.707490409018449 1.727615894044639 -0.163329861909111
-0.701436576230425 1.711981027759263 -0.227164456107195
-0.702346011576354 1.712496527626572 -0.293158187485393
-0.692665157029284 1.687214373544733 -0.354523113409620
-2.043518874102699 4.975192223961113 -1.241729819978135
-1.741031630459640 4.234544254435496 -1.226802273785948
nan nan nan
nan nan nan
nan nan nan
-0.715506077479856 1.764729182005963 0.301605648597565
-0.708887934709561 1.747530166249323 0.231551752469780
-0.701611777588009 1.727861446967251 0.163155550423616
-0.703628908208347 1.731961797622180 0.097972910086791
-0.702079264893601 1.726418958788316 0.032531285599096
-0.700262979042912 1.731471319072911 -0.032601095224846
-0.703760830252883 1.738374060440903 -0.098286925824249
-0.696663850383158 1.719118199888112 -0.162283992996140
-0.695903017435857 1.716380057931285 -0.227408194794005
-0.692350354574877 1.705907388266071 -0.291593842834990
-0.687954437503111 1.693379550442282 -0.355286349391126
-2.032608092462771 5.000701752569595 -1.246228841065012
-1.722587320191165 4.233739379656200 -1.224731721425128
nan nan nan
nan nan nan
nan nan nan
-0.712710773945890 1.776506489685720 0.303169993247967
-0.695385875197145 1.731573010892478 0.229114365601677
-0.698548688735434 1.737694446843052 0.163852796365597
-0.697578946560267 1.734407369162445 0.097972910086791
-0.693061327496523 1.721439158460148 0.032391666347598
-0.694214749990866 1.733905144315934 -0.032601095224846
-0.692487399210416 1.727842694118749 -0.097554222436847
-0.690658763691201 1.721539537087014 -0.162283992996140
-0.691386394657195 1.722483212077897 -0.227895672167626
-0.684181994095452 1.702814885040456 -0.290655236044749
-0.683504424139439 1.699413544414011 -0.356049585372633
-2.007865128813853 4.989687833789846 -1.241729819978135
-1.715016399732899 4.257645923333358 -1.229908102327179
nan nan nan
nan nan nan
nan nan nan
-0.706396457898585 1.776901124575657 0.302857124317887
-0.685237991581306 1.722802220823988 0.227651933480815
-0.695730455841713 1.747405624458974 0.164550042307579
-0.688867097785513 1.729289245694111 0.097554222436847
-0.687349018846870 1.723727967586960 0.032391666347598
-0.691409537826422 1.743633246017703 -0.032740714476344
-0.686016998463395 1.728273202627951 -0.097449550524361
-0.687888975922844 1.731226695888790 -0.162981238938121
-0.682003945133270 1.715543111126874 -0.226676978733574
-0.678531494583669 1.705074351639196 -0.290655236044749
-0.677865207605145 1.701670782811532 -0.356049585372633
-1.963891132638767 4.927528824088418 -1.224633539848001
-1.701603969313739 4.265104034948511 -1.230425740417384
nan nan nan
nan nan nan
nan nan nan
-0.699879044979378 1.779478261920795 0.302857124317887
-0.680674547660843 1.728877835297132 0.228139410854436
-0.688165559922073 1.746116277922232 0.164201419336588
-0.682826555018602 1.731683305182033 0.097554222436847
-0.684264655992136 1.733556920328039 0.032531285599096
-0.678012737920238 1.727421635608727 -0.032391666347598
-0.677788891829364 1.725080550581446 -0.097135534786904
-0.681841676151724 1.733617329290638 -0.162981238938121
-0.672376957104714 1.708677204490188 -0.225458285299523
-0.674023496492789 1.711108330999719 -0.291280973904910
-0.667600102032948 1.693068236335336 -0.353759877428114
-1.973139984114011 5.001426473375829 -1.241279917869447
-1.688124799690749 4.274611377104239 -1.231461016597794
nan nan nan
nan nan nan
nan nan nan
-0.691823487647070 1.776267285831092 0.301918517527646
-0.676077019722738 1.734942537775236 0.228626888228057
-0.679170036634333 1.741083124558005 0.163504173394607
-0.676777692225607 1.734056264655367 0.097554222436847
-0.678209244300376 1.735934888295867 0.032531285599096
-0.671978780457589 1.729777817688144 -0.032391666347598
-0.671763107642227 1.727435965554880 -0.097135534786904
-0.670003941566892 1.721133475783120 -0.161586747054158
-0.667849347418133 1.714713317579130 -0.225945762673143
-0.666611391373606 1.709769805164051 -0.290655236044749
-0.658830951694420 1.688072689537948 -0.352233405465102
-1.961340389163832 5.022805572359562 -1.244879134738949
-1.666863475504374 4.264284504470018 -1.226802273785948
nan nan nan
nan nan nan
nan nan nan
-0.686018659991116 1.780634321578643 0.302231386457726
-0.668588213910673 1.733587669959246 0.228139410854436
-0.673088384625291 1.743443263133350 0.163504173394607
-0.670720583110008 1.736408095200352 0.097554222436847
-0.669260823912347 1.730831225026690 0.032391666347598
-0.665936635145564 1.732112922970737 -0.032391666347598
-0.670033421454957 1.740954192173113 -0.097763566261819
-0.662559421758656 1.719743376199186 -0.161238124083168
-0.665429714082236 1.726295341330085 -0.227164456107195
-0.659216861158661 1.708400427343344 -0.290029498184588
-0.654349273788690 1.694024910979655 -0.352996641446608
-1.950118005319044 5.045980775072131 -1.248928253717139
-1.651968189661216 4.270076964339293 -1.226802273785948
nan nan nan
nan nan nan
nan nan nan
-0.680814139543764 1.784745102508793 0.302544255387806
-0.659701453677856 1.728492494023866 0.227164456107195
-0.669842874663526 1.753226858438563 0.164201419336588
-0.668934198266388 1.749932365380591 0.098182253911763
-0.658926989947082 1.721951081044604 0.032182237470351
-0.661308544518742 1.738164912062183 -0.032461475973347
-0.657554448104672 1.726484214010287 -0.096821519049446
-0.657971933241477 1.725769004891132 -0.161586747054158
-0.659399764780394 1.728607607321304 -0.227164456107195
-0.649021263063573 1.699618681048428 -0.288152284604105
-0.648432036816055 1.696298695618787 -0.352996641446608
-1.196669443352259 3.128850739654971 -0.773381724834208
-1.636362035539442 4.274013252307692 -1.226284635695743
nan nan nan
nan nan nan
nan nan nan
-0.676359983841290 1.792773082300833 0.303482862178048
-0.649455733279644 1.719642360166402 0.225702023986333
-0.660900550701487 1.748099781867448 0.163504173394607
-0.655755389375682 1.733575945029928 0.097135534786904
-0.655744835643066 1.731721111526190 0.032321856721849
-0.656646300022409 1.744205650754564 -0.032531285599096
-0.649410837047034 1.723162170699658 -0.096507503311988
-0.654757000900122 1.735511790622440 -0.162283992996140
-0.648454557224220 1.717898497817883 -0.225458285299523
-0.645877516504751 1.709265250680460 -0.289403760324427
-0.645285307115159 1.705896900307766 -0.354523113409620
nan nan nan
-1.623486289035839 4.285118810512172 -1.227837549966358
nan nan nan
nan nan nan
nan nan nan
-0.669028924039985 1.791305072020899 0.302857124317887
-0.644838843421558 1.725617911210150 0.226189501359954
-0.657586818005038 1.757860481003501 0.164201419336588
-0.649700084963528 1.735854396969990 0.097135534786904
-0.649696005872404 1.733999537927130 0.032321856721849
-0.646365770441939 1.735243668301098 -0.032321856721849
-0.646881032351023 1.734775472974621 -0.097030862874418
-0.648694945208335 1.737786745742522 -0.162283992996140
-0.641064932017678 1.716432313992701 -0.224970807925902
-0.638523549442574 1.707808809717553 -0.288778022464266
-0.633821180108063 1.693429488230790 -0.351470169483596
nan nan nan
-1.613265434992478 4.303422173208022 -1.231461016597794
nan nan nan
nan nan nan
nan nan nan
-0.664141390193204 1.797335351623747 0.303482862178048
-0.641564881584610 1.735305970887799 0.227164456107195
-0.647297391333193 1.748934062090167 0.163155550423616
-0.643636864160872 1.738111698072026 0.097135534786904
-0.642249110171822 1.732506821326143 0.032252047096100
-0.637538806753813 1.729983980698760 -0.032182237470351
-0.638747738576491 1.731401506856022 -0.096716847136960
-0.637102966164989 1.725088513362618 -0.160889501112177
-0.636445658265331 1.722383663898671 -0.225458285299523
-0.633928951292011 1.713732636155329 -0.289403760324427
-0.626542615349857 1.691949466722964 -0.350706933502089
-1.159099869515642 3.128419013968773 -0.770232410073394
-1.409455501349172 3.800058545932544 -1.086004713250177
nan nan nan
nan nan nan
nan nan nan
-0.697199639244310 1.907250188640840 0.321629260122715
-0.634442479643444 1.733695557857866 0.226676978733574
-0.640123443910430 1.747329356741220 0.162806927452625
-0.639244257964287 1.743987027838146 0.097344878611876
-0.635122672763813 1.730872466166341 0.032182237470351
-0.635909954509010 1.743360349929863 -0.032391666347598
-0.635742963618500 1.741014523802495 -0.097135534786904
-0.628642660404366 1.719706616520158 -0.160192255170196
-0.632094270498863 1.728213339125862 -0.225945762673143
-0.626884161308116 1.712115504877708 -0.288778022464266
-0.620928463784510 1.694017853995574 -0.350706933502089
-1.147377323309818 3.128586361205518 -0.769332605856018
-1.176466834208719 3.204444877341524 -0.914666505392308
nan nan nan
nan nan nan
nan nan nan
-0.691881304939898 1.913387565588770 0.322254997982876
-0.624332778598206 1.724700260787907 0.225214546612713
-0.636735516416066 1.757045892234154 0.163504173394607
-0.633152712682655 1.746207781746100 0.097344878611876
-0.629076930955551 1.733078912955480 0.032182237470351
-0.629820617055222 1.745569468764680 -0.032391666347598
-0.626947756093186 1.735709181461458 -0.096716847136960
-0.623990963399908 1.725637825281108 -0.160540878141186
-0.625382470187155 1.728542554394044 -0.225702023986333
-0.617540433717583 1.705006778872311 -0.287213677813864
-0.615011455056356 1.696174978279960 -0.350706933502089
-1.131132805743913 3.117917085613588 -0.765733388986516
-1.152084773382540 3.172215838825849 -0.904313743588207
nan nan nan
nan nan nan
nan nan nan
-0.681206675384943 1.904631077314556 0.320377784402393
-0.615631986731236 1.719393457691798 0.224239591865471
-0.631942961968613 1.763008892190142 0.163852796365597
-0.625704950586355 1.744647243053274 0.097135534786904
-0.623023524043409 1.735264242724990 0.032182237470351
-0.623723605435978 1.747757318386386 -0.032391666347598
-0.614165644213453 1.719078761451616 -0.095670128012101
-0.619305502132765 1.731557467559180 -0.160889501112177
-0.614663047579251 1.717631856859715 -0.223995853178661
-0.612251301816151 1.709011652488634 -0.287526546743944
-0.609086952607710 1.698311435207517 -0.350706933502089
-1.115635010581738 3.109006923906992 -0.762584074225702
-1.136432798693954 3.163491349608555 -0.900690276956772
nan nan nan
nan nan nan
nan nan nan
-0.671919145035898 1.899548120380524 0.319126308682071
-0.610951707738175 1.725274399961645 0.224727069239092
-0.625785062471254 1.765204043931189 0.163852796365597
-0.616940445350980 1.739291332229888 0.096716847136960
-0.618300839291199 1.741197254072585 0.032252047096100
-0.613625767687505 1.738609709170325 -0.032182237470351
-0.613484271735942 1.736277440427396 -0.096507503311988
-0.613257465587037 1.733708697946007 -0.160889501112177
-0.607339027118347 1.716024274911032 -0.223508375805040
-0.608920884902644 1.718586224101372 -0.288778022464266
-0.603155028626760 1.700427198746190 -0.350706933502089
-1.100213258591990 3.100026714680843 -0.759434759464888
-1.126030001570920 3.169259334516328 -0.901207915046977
nan nan nan
nan nan nan
nan nan nan
-0.663006061944806 1.894307934944575 0.317874832961749
-0.608862263548018 1.738637700471757 0.226189501359954
-0.615664519652862 1.756096553044292 0.162806927452625
-0.613815110083041 1.748865832050991 0.097135534786904
-0.613544309428178 1.747118392652986 0.032321856721849
-0.604917343409596 1.733189048621055 -0.032042618218853
-0.606102181437262 1.734637371365094 -0.096298159487017
-0.602596958104487 1.722674262333434 -0.159669320713710
-0.602656833585552 1.721881122113661 -0.223995853178661
-0.601611758099212 1.716972787610278 -0.288152284604105
-0.594616339699457 1.695111917792385 -0.349180461539077
-1.090030813600634 3.105687061908581 -0.759884661573576
-1.104713741617468 3.144008783918022 -0.892925705603697
nan nan nan
nan nan nan
nan nan nan
-0.657350076981139 1.900458961061513 0.318500570821910
-0.601490460535518 1.737000812392799 0.225702023986333
-0.608225642654022 1.754469967518126 0.162458304481635
-0.606092019460942 1.747329899432666 0.096926190961932
-0.603506080992540 1.737915188432092 0.032112427844602
-0.600168413182414 1.739070633354502 -0.032112427844602
-0.598739032124321 1.732966967635418 -0.096088815662045
-0.595277455037773 1.721001355837503 -0.159320697742719
-0.597291905550252 1.725850220906830 -0.224239591865471
-0.593027921840064 1.711596275346463 -0.286900808883783
-0.589982438775211 1.700886865873941 -0.349943697520583
nan nan nan
-1.089294038346579 3.135071933111189 -0.889302238972261
nan nan nan
nan nan nan
nan nan nan
-0.642402547720632 1.878443686253082 0.314433274730864
-0.591565495863184 1.727821422932402 0.224239591865471
-0.603389749197651 1.760351872477952 0.162806927452625
-0.602887396277036 1.756886667380208 0.097344878611876
-0.594838400514430 1.732445963597163 0.031972808593103
-0.596677285937403 1.748725256266543 -0.032252047096100
-0.593977456142571 1.738826456571734 -0.096298159487017
-0.587976989363164 1.719298385802244 -0.158972074771729
-0.590621246948006 1.726046465310927 -0.223995853178661
-0.587049722950194 1.713655901470867 -0.286900808883783
-0.585315450723184 1.706650072492389 -0.350706933502089
nan nan nan
-1.079599306745485 3.142509259490962 -0.890337515152671
nan nan nan
nan nan nan
nan nan nan
-0.633310928870159 1.873189373272798 0.313181799010542
-0.584257776788643 1.726115245724461 0.223752114491851
-0.598520187675762 1.766221348333934 0.163155550423616
-0.592901037611092 1.747632172706710 0.096716847136960
-0.590072973634769 1.738298926077878 0.032042618218853
-0.589291171609057 1.747007790095690 -0.032182237470351
-0.581513937349388 1.721966522258011 -0.095251440362158
-0.585800698598479 1.732664941418408 -0.160017943684700
-0.580775912968241 1.716815137231793 -0.222533421057799
-0.579797055077328 1.711952674180591 -0.286275071023622
-0.578093727371301 1.704964237437131 -0.349943697520583
-0.627958146217179 1.850966333039649 -0.451251815013793
-0.620671338219768 1.827390907254665 -0.517120452114836
nan nan nan
nan nan nan
nan nan nan
-0.623963380613627 1.865912179549541 0.311617454360140
-0.579488708727452 1.731909189853035 0.224239591865471
-0.591085570377319 1.764521394844833 0.162806927452625
-0.586491663090015 1.749793525135407 0.096716847136960
-0.585273917705597 1.744139682832619 0.032112427844602
-0.579394227535030 1.737672025616386 -0.031972808593103
-0.576764443996605 1.727774873883651 -0.095460784187130
-0.578485930652704 1.730919910353942 -0.159669320713710
-0.576038672417494 1.722597203858852 -0.223020898431420
-0.573817692730332 1.713966113789901 -0.286275071023622
-0.569643071584652 1.699525877393565 -0.348417225557571
-0.620253973552874 1.849451830857861 -0.450352010796418
-0.609984446489722 1.816726677555016 -0.513496985483401
nan nan nan
nan nan nan
nan nan nan
-0.614641884859085 1.860683829316474 0.310365978639818
-0.574686295034593 1.737690825967215 0.224727069239092
-0.583670129170837 1.762791104929524 0.162458304481635
-0.581942809845868 1.755520401355196 0.096926190961932
-0.579182168364377 1.746172044165942 0.032112427844602
-0.572073288844391 1.735885465935945 -0.031902998967354
-0.573233071527235 1.737364375307522 -0.095879471837073
-0.569940628684242 1.725361283678808 -0.158972074771729
-0.568776226512423 1.720827847481148 -0.222533421057799
-0.570313661387512 1.723460127926455 -0.287526546743944
-0.563707148714990 1.701503948694326 -0.348417225557571
-0.609502134549471 1.838657362489849 -0.447202696035604
-0.595120069508145 1.793175671119629 -0.506250052220531
nan nan nan
nan nan nan
nan nan nan
-0.613375257477517 1.877733694138947 0.312868930080462
-0.568617120908137 1.739686268889121 0.224727069239092
-0.576273985094830 1.761030591802267 0.162109681510644
-0.577055007711541 1.761337050639853 0.097135534786904
-0.570591695080466 1.740582332731166 0.031972808593103
-0.568487502246375 1.745477364621885 -0.032042618218853
-0.567165045779771 1.739354747521584 -0.095879471837073
-0.561441212298965 1.719764182581781 -0.158274828829747
-0.563998735292700 1.726576701293944 -0.223020898431420
-0.558153881578854 1.706665199492921 -0.284397857443140
-0.556542529524887 1.699729718620548 -0.347653989576065
-0.600046706163763 1.831514295096381 -0.444953185492165
-0.584642369071943 1.782392722085959 -0.502626585589095
nan nan nan
nan nan nan
nan nan nan
-0.606210189801878 1.877983470219728 0.312556061150381
-0.560100493336077 1.734104503374900 0.223752114491851
-0.571349401987064 1.766822900053646 0.162458304481635
-0.570903278426459 1.763340617851124 0.097135534786904
-0.563279892717237 1.738758741492720 0.031902998967354
-0.559940679536733 1.739836956170558 -0.031902998967354
-0.556189759005602 1.726115857022091 -0.095042096537186
-0.555434694529188 1.721713500752138 -0.158274828829747
-0.560407628029113 1.736091342126199 -0.223995853178661
-0.550978161488641 1.704843819741263 -0.283772119582979
-0.553023564281593 1.709133681906901 -0.349180461539077
-0.585246335384241 1.807641808391698 -0.438654555970537
-0.575438634710538 1.775234063742079 -0.500038395138070
nan nan nan
nan nan nan
nan nan nan
-0.602710981936891 1.887405706798571 0.313807536870703
-0.551024725677265 1.724510089504756 0.222289682370989
-0.565795953780521 1.768609125270630 0.162458304481635
-0.562923872434967 1.757517159325253 0.096716847136960
-0.559035251326863 1.744328331273840 0.031972808593103
-0.556898639927990 1.749209300073618 -0.032042618218853
-0.548944564606785 1.722145886879700 -0.094728080799728
-0.551234544476213 1.727246096395913 -0.158623451800738
-0.548912142267143 1.718933188369405 -0.221558466310558
-0.548025786828537 1.714092554995600 -0.285023595303301
-0.546454389902406 1.707123029160802 -0.348417225557571
-0.575998031151040 1.798336281434690 -0.435955143318410
-0.570448657799777 1.778872672906413 -0.500556033228275
nan nan nan
nan nan nan
nan nan nan
-0.588987002295388 1.866891903749763 0.310053109709738
-0.547392063417105 1.733995049220277 0.223264637118230
-0.559618908811847 1.770573346745395 0.162458304481635
-0.555580399594016 1.755663043237922 0.096507503311988
-0.554150302468548 1.750081916051845 0.032042618218853
-0.549589390357233 1.747327456865895 -0.031972808593103
-0.544729576594936 1.729766657173307 -0.095042096537186
-0.547598464321119 1.736760443222935 -0.159320697742719
-0.540519564789423 1.713266329122898 -0.220583511563317
-0.543229135618583 1.719762357036098 -0.285649333163462
-0.538124106430977 1.701532618302823 -0.346890753594558
-0.570893043692806 1.804051797337501 -0.436854947535786
-0.564819248977845 1.782694699575764 -0.501073671318480
nan nan nan
nan nan nan
nan nan nan
-0.581291232010907 1.865164658987915 0.309427371849577
-0.542517912481122 1.739685404289393 0.223752114491851
-0.552247416211303 1.768712311951398 0.162109681510644
-0.549141841136511 1.757687554748480 0.096507503311988
-0.548038000478246 1.752005599491476 0.032042618218853
-0.538740122005966 1.733958072894481 -0.031693570090107
-0.539874783471728 1.735471803654640 -0.095251440362158
-0.537977783590017 1.727247805881509 -0.158274828829747
-0.535717150932740 1.718933027213961 -0.221070988936938
-0.539576394475136 1.729190920745030 -0.286900808883783
-0.532181370752642 1.703400655657511 -0.346890753594558
-0.563429340801363 1.802313649434627 -0.435955143318410
-0.555130688562788 1.773593512103486 -0.497967842777250
nan nan nan
nan nan nan
nan nan nan
-0.578517040186326 1.880499028543264 0.311617454360140
-0.536441971957818 1.741568546449560 0.223752114491851
-0.543134232877965 1.761109727534944 0.161238124083168
-0.543003021025989 1.759593709059320 0.096507503311988
-0.539557717894905 1.746265634924117 0.031902998967354
-0.533857509824096 1.739651472828233 -0.031763379715856
-0.532053742315270 1.731618231797628 -0.094937424624700
-0.529601914743044 1.721497928337920 -0.157577582887766
-0.532049804458092 1.728381498532517 -0.222045943684179
-0.527718815421981 1.712186390553612 -0.283772119582979
-0.526232150612250 1.705247937612770 -0.346890753594558
-0.557134659505933 1.804269404548953 -0.435955143318410
-0.548365689948936 1.773674819109649 -0.497450204687045
nan nan nan
nan nan nan
-0.589787900347874 1.942439341402882 0.394593002438695
-0.570554171189156 1.876737219594500 0.310678847569898
-0.528048560439386 1.735833821226564 0.222777159744610
-0.536983503755569 1.762994890530467 0.161238124083168
-0.538022134670061 1.765299417686687 0.096716847136960
-0.533458826114741 1.748138403987846 0.031902998967354
-0.527781740505832 1.741504384748331 -0.031763379715856
-0.526006025230347 1.733464896335372 -0.094937424624700
-0.523589539047084 1.723336096056632 -0.157577582887766
-0.527168190064108 1.734026694113111 -0.222533421057799
-0.519438010960907 1.706458976524313 -0.282520643862657
-0.521421241312151 1.710830381025642 -0.347653989576065
-0.550264734396365 1.804339188445055 -0.435505241209723
-0.542171068600026 1.775578166747362 -0.497450204687045
nan nan nan
nan nan nan
-0.584131595695256 1.948247346630490 0.395356238420201
-0.562536462575784 1.875031679047596 0.310053109709738
-0.520843950955363 1.733864145734784 0.222289682370989
-0.531973964051417 1.768674482415540 0.161586747054158
-0.529554401503141 1.759516638264061 0.096298159487017
-0.526199488061380 1.746160573034532 0.031833189341605
-0.525139317522630 1.754830600571615 -0.031972808593103
-0.516512305329803 1.723811119817543 -0.094309393149785
-0.519860919788350 1.732786686997486 -0.158274828829747
-0.517687481650179 1.724448691377375 -0.221070988936938
-0.515752736415618 1.715828808193634 -0.283772119582979
-0.514314546980905 1.708880145543983 -0.346890753594558
-0.539467500350686 1.791321300661612 -0.431906024340221
-0.538200724901530 1.784858255714945 -0.499520757047865
nan nan nan
nan nan nan
-0.575873114211499 1.946610006846458 0.394593002438695
-0.554304841560007 1.871301783974987 0.309114502919496
-0.514485522769274 1.735761488215541 0.222289682370989
-0.526621613517996 1.774432476063973 0.161935370025149
-0.520827537665719 1.753787274126856 0.095879471837073
-0.519795955244143 1.748077461947316 0.031833189341605
-0.516438931553749 1.749072176335775 -0.031833189341605
-0.510757001868222 1.727607961709196 -0.094414065062271
-0.513506447288780 1.734680433725985 -0.158274828829747
-0.510235990681261 1.722527836709732 -0.220583511563317
-0.509460445242814 1.717707611580148 -0.283772119582979
-0.506929916794328 1.706989689778448 -0.346127517613052
-0.533453458527782 1.795154522722001 -0.432355926448909
-0.532206215488246 1.788670497208310 -0.500038395138070
nan nan nan
nan nan nan
-0.569625031169083 1.950492853891609 0.394974620429448
-0.546888362944559 1.871424769880234 0.308801633989416
-0.508423450052076 1.737546802980728 0.222289682370989
-0.518183685608973 1.768611866778814 0.161238124083168
-0.516950113765980 1.763260968874645 0.096298159487017
-0.515943889487938 1.757556156260939 0.031972808593103
-0.504734656069060 1.731666155993971 -0.031484141212859
-0.504723412985287 1.729380311181696 -0.094414065062271
-0.504094972485671 1.724987916733958 -0.157228959916775
-0.503105839270693 1.720487794268154 -0.220096034189696
-0.503461422930135 1.719475495541750 -0.283772119582979
-0.500968322427400 1.708748805844587 -0.346127517613052
-0.530475420942473 1.808225284552671 -0.435055339101035
-0.522692519655560 1.779396120640820 -0.496932566596840
nan nan nan
nan nan nan
-0.567305650672156 1.965476532562815 0.397645946364719
-0.540784871415124 1.871141471049342 0.308488765059335
-0.504065273261450 1.742949378894288 0.222777159744610
-0.510408123333058 1.762576005192764 0.160540878141186
-0.510296367335782 1.761039623912128 0.096088815662045
-0.505962011899931 1.743804450082955 0.031693570090107
-0.502613217293417 1.744772613098023 -0.031693570090107
-0.501502059862828 1.738633495871504 -0.094832752712214
-0.499778990156666 1.730391362197937 -0.157577582887766
-0.497698293620851 1.722059855016910 -0.220096034189696
-0.495860552748363 1.713458607034182 -0.282520643862657
-0.495597666384900 1.710314209326715 -0.346127517613052
-0.525877507720463 1.813626190781314 -0.435955143318410
-0.515483874776931 1.775463707008992 -0.495379652326225
nan nan nan
nan nan nan
-0.556138587952423 1.952339681873188 0.394593002438695
-0.533381658518234 1.871211271717138 0.308175896129255
-0.493619502503426 1.729427394340461 0.220827250250127
-0.503157464520959 1.760515551558783 0.160192255170196
-0.506342797938728 1.770491251822518 0.096507503311988
-0.498770876472246 1.741715117508372 0.031623760464358
-0.496519762210544 1.746516430884442 -0.031693570090107
-0.493242711968105 1.732689704306217 -0.094414065062271
-0.493735752274682 1.732125374300892 -0.157577582887766
-0.493862153685361 1.731422476176078 -0.221070988936938
-0.486621452094019 1.703782505897206 -0.280643430282174
-0.489624536319054 1.712033748202815 -0.346127517613052
-0.516326579033825 1.804209615213280 -0.433255730666284
-0.511944041186110 1.786537804317000 -0.497967842777250
nan nan nan
nan nan nan
-0.542270887595124 1.931778374134432 0.390013586549658
-0.526519743736906 1.873153644659229 0.308175896129255
-0.489125357074256 1.738953756407940 0.221802204997368
-0.499634751614373 1.773941200356253 0.161238124083168
-0.495206472503173 1.757043475898395 0.095670128012101
-0.493165778379309 1.747466461094597 0.031693570090107
-0.491967730005082 1.756112297289097 -0.031833189341605
-0.482809874788275 1.721109649987958 -0.093681361674869
-0.486003631571316 1.730172108277954 -0.157228959916775
-0.485061676902100 1.725661874567231 -0.220096034189696
-0.484357438459473 1.720850370696492 -0.283146381722818
-0.481982051707294 1.710121871331150 -0.345364281631546
-0.508337188440543 1.802427711646952 -0.432355926448909
-0.508230661460932 1.799645179101259 -0.501073671318480
-0.545003926686109 1.971901313864331 0.548178737527139
nan nan nan
-0.535524418979736 1.933659483720722 0.390013586549658
-0.516810630839241 1.863558930895514 0.306298682548772
-0.481990642367100 1.736824922669921 0.221314727623748
-0.493439497306936 1.775674443652220 0.161238124083168
-0.489070229240124 1.758761364562333 0.095670128012101
-0.489208629452710 1.756882911558235 0.031833189341605
-0.481573048499688 1.742399422390053 -0.031553950838609
-0.477864612447263 1.726634283104378 -0.093890705499841
-0.481557566376991 1.737618096730901 -0.157751894373261
-0.476913066301738 1.719692960890010 -0.219121079442455
-0.478347598806345 1.722530609665175 -0.283146381722818
-0.474957720892297 1.708010914104970 -0.344601045650040
-0.504654528112779 1.813578209339746 -0.434605436992347
-0.502982708904810 1.805130189040208 -0.502108947498890
-0.529479052356145 1.942106677333985 0.539378889993653
nan nan nan
-0.529288814038332 1.937410884558500 0.390395204540411
-0.508414126254595 1.859724253849888 0.305360075758531
-0.476973348614730 1.742326090767614 0.221802204997368
-0.485131254462646 1.769700057181769 0.160540878141186
-0.483984762099098 1.764310028576646 0.095879471837073
-0.482013612627515 1.754723330029780 0.031763379715856
-0.475488005582228 1.744069810739785 -0.031553950838609
-0.476042735305910 1.743705796535203 -0.094728080799728
-0.472862201265775 1.729679131658199 -0.156880336945785
-0.470907312116451 1.721347221201821 -0.219121079442455
-0.473375758109709 1.728000224473782 -0.283772119582979
-0.467954012925893 1.705871801287805 -0.343837809668534
-0.496773303855802 1.809691066569378 -0.433255730666284
-0.494630405284891 1.799423898239503 -0.500038395138070
nan nan nan
nan nan nan
-0.518436563865543 1.924081469790047 0.387342260614386
-0.504490688020889 1.871023929792682 0.306924420408933
-0.470888589695346 1.743980423615194 0.221802204997368
-0.475830691611436 1.759842747222568 0.159495009228214
-0.478866504344701 1.769844572419102 0.096088815662045
-0.474839646255815 1.752534971964496 0.031693570090107
-0.469397168993474 1.745718948149268 -0.031553950838609
-0.469433880717971 1.743428301400612 -0.094623408887242
-0.465784232155247 1.727471814993131 -0.156531713974794
-0.466447196559409 1.728730164306732 -0.219852295502886
-0.462188425423413 1.710572162887050 -0.280643430282174
-0.463022077724545 1.711285094563891 -0.344601045650040
-0.492999763039533 1.820819161400117 -0.435505241209723
-0.487335161450528 1.797410450532798 -0.499003118957660
-0.512283876059312 1.930727775619017 0.535237785272013
-0.512601346357723 1.930564904243930 0.461149661404923
-0.508521827660788 1.912508777183945 0.384670934679114
-0.497775441095767 1.870777636904409 0.306611551478852
-0.463058345391925 1.737859687750959 0.220827250250127
-0.472046837306082 1.769111139745837 0.160192255170196
-0.472994855273697 1.771422819766439 0.096088815662045
-0.466959228751801 1.746372648339981 0.031553950838609
-0.461554223337481 1.739534661537467 -0.031414331587110
-0.458008125596048 1.723742306369216 -0.093472017849898
-0.459540859491736 1.727081515489178 -0.156357402489299
-0.461733490335142 1.734103967007647 -0.220339772876507
-0.455495555284623 1.708278048517455 -0.280017692422013
-0.457344705998064 1.712811121879013 -0.344601045650040
-0.485449827980814 1.816795925810954 -0.434155534883659
-0.482370751277610 1.802749029038601 -0.500038395138070
-0.506519093496085 1.936242136584252 0.536273061452423
-0.496975911570558 1.898408636471574 0.453051423448544
-0.502340688050602 1.916171277524864 0.385052552669867
-0.489738373292409 1.866771645544869 0.305672944688611
-0.454971649268178 1.731785716110485 0.219852295502886
-0.466882471003456 1.774601753835312 0.160540878141186
-0.463757517753388 1.761474440180610 0.095460784187130
-0.460860405719944 1.747992000732876 0.031553950838609
-0.458515830944832 1.752742756523918 -0.031623760464358
-0.451988351732604 1.725330551453000 -0.093472017849898
-0.454520589551289 1.732529438496901 -0.156706025460289
-0.453157184537924 1.726105013794246 -0.219121079442455
-0.450534312876837 1.713678528184341 -0.280643430282174
-0.451363093131008 1.714397117792756 -0.344601045650040
-0.478608587247753 1.816594958792953 -0.433705632774972
-0.480017694528821 1.819365286263440 -0.504179499859710
-0.494933349465981 1.919291873450925 0.531096680550373
-0.487911512841831 1.890697223501821 0.450801912905105
-0.496631397418765 1.921714711481703 0.385815788651374
-0.483050314086306 1.866473042450350 0.305360075758531
-0.451910006635549 1.744893445812519 0.221314727623748
-0.461685512449326 1.780077823025240 0.160889501112177
-0.456909511387139 1.759136396506223 0.095251440362158
-0.454755967249484 1.749590054394875 0.031553950838609
-0.449398831317117 1.742714500479566 -0.031414331587110
-0.446961868004131 1.730765406120945 -0.093681361674869
-0.448969018585005 1.736034383366469 -0.156880336945785
-0.444145015802191 1.716145657624727 -0.217658647321593
-0.445540905914710 1.719065140187893 -0.281269168142335
-0.443403107986543 1.708361062749131 -0.343074573687028
-0.470304967604970 1.810709922539973 -0.431906024340221
-0.474636616102058 1.824769057367512 -0.505214776040120
-0.480286962384866 1.891134437993272 0.522814471107092
-0.485151560012712 1.907497726624279 0.454401129774607
-0.490404925440324 1.925339079800430 0.386197406642127
-0.475718187759290 1.866316802539477 0.305047206828450
-0.444834464134587 1.742613446827799 0.220827250250127
-0.452508272852612 1.770096685564185 0.159843632199205
-0.450458885206779 1.760799237802879 0.095251440362158
-0.450631146958778 1.758915315473022 0.031693570090107
-0.440850035229395 1.734582174722254 -0.031239807522737
-0.443873518733974 1.743928335032848 -0.094309393149785
-0.439461564938211 1.724076404515102 -0.155660156547317
-0.441095753014078 1.729226558093796 -0.219121079442455
-0.440515370924014 1.724437725738312 -0.281894906002496
-0.435490786125916 1.702290418644291 -0.341548101724015
-0.462531602863764 1.806676997520688 -0.430556318014158
-0.469703428108437 1.832028710932311 -0.506767690310736
-0.466973295392194 1.864607074467415 0.515049899754016
-0.479911452668362 1.914850430971381 0.455750836100671
-0.478901791148505 1.907997293466555 0.382381226734596
-0.469681859546723 1.869881861226927 0.305360075758531
-0.439717438570040 1.748005825377658 0.221314727623748
-0.445353275733789 1.767801403389101 0.159495009228214
-0.445594568812979 1.766156482004569 0.095460784187130
-0.440572441841372 1.744966779987765 0.031414331587110
-0.436249932817874 1.741929825526681 -0.031344521961361
-0.436325710318862 1.739655351941831 -0.093995377412327
-0.433440737846594 1.725599907985239 -0.155660156547317
-0.435056938575551 1.730755734568354 -0.219121079442455
-0.430635400239812 1.710640022852969 -0.279391954561852
-0.432425668701404 1.715222318444606 -0.343837809668534
-0.454315420055912 1.800722405894384 -0.428756709579407
-0.465671811456016 1.843022070065544 -0.509355880761761
-0.458147878931329 1.856847736764913 0.512461709302991
-0.474625907969416 1.922189725702797 0.457100542426734
-0.468468351039774 1.894410583251576 0.379328282808571
-0.462677351445633 1.869592434212712 0.305047206828450
-0.430747795978838 1.737969304798415 0.219852295502886
-0.439179784018655 1.769345206380208 0.159495009228214
-0.441354128077920 1.775454212450668 0.095879471837073
-0.433513178769954 1.742612936017572 0.031344521961361
-0.429687777600557 1.741500537368482 -0.031309617148487
-0.427854917416210 1.731473116026303 -0.093472017849898
-0.428850512829864 1.732904521238854 -0.156183091003803
-0.430921667702211 1.739971336556644 -0.220096034189696
-0.425612618294697 1.715967363057638 -0.280017692422013
-0.426435791002948 1.716721315995708 -0.343837809668534
-0.442385485282849 1.779603097388045 -0.423357884275154
-0.461569141190778 1.854009491844765 -0.511944071212786
-0.452706808754341 1.864146322599153 0.514014623573606
-0.461926242190856 1.899218772606830 0.451251815013793
-0.463246691827830 1.901756739096441 0.380473136780830
-0.455538656552131 1.867278260361286 0.304421468968289
-0.424207707936704 1.737533856447191 0.219608556816076
-0.434893841325133 1.778608947509530 0.160192255170196
-0.432944917378256 1.769299843779655 0.095460784187130
-0.429331592850684 1.751884451735440 0.031484141212859
-0.426439674690765 1.754648612568130 -0.031519046025734
-0.420391292394552 1.727134258800183 -0.093158002112440
-0.424214555938772 1.740198043934686 -0.156706025460289
-0.420140587166767 1.722179607433934 -0.217658647321593
-0.417744783953814 1.709766853084130 -0.278766216701691
-0.419507441586837 1.714385412718719 -0.343074573687028
-0.431535632031130 1.762208344951333 -0.418858863188277
-0.459236035430209 1.872495606484612 -0.516602814024631
-0.444399596261391 1.858199738131719 0.511944071212786
-0.450754596072504 1.881868283179779 0.446752793926916
-0.456147520279686 1.901453096209987 0.380091518790077
-0.444541397081590 1.851648179059616 0.301605648597565
-0.418139998503170 1.739004032032396 0.219608556816076
-0.428682687963273 1.780116174417858 0.160192255170196
-0.423329052385116 1.755193130084914 0.094623408887242
-0.423213759274940 1.753372425588033 0.031484141212859
-0.415192127719150 1.734734015075132 -0.031135093084114
-0.414825480512043 1.730533413243348 -0.093262674024926
-0.417672432646164 1.739730887674168 -0.156531713974794
-0.414126498842576 1.723635679661605 -0.217658647321593
-0.413622631591099 1.718896858617847 -0.280017692422013
-0.412600607176093 1.712022104715992 -0.342311337705521
-0.425381747915161 1.763703949439720 -0.418858863188277
-0.462676300933585 1.915399775699338 -0.527990852009142
-0.436785956119897 1.852065609882636 0.509873518851966
-0.442152460935664 1.871895775909268 0.444053381274789
-0.450171688031713 1.902876740264206 0.380091518790077
-0.439045497653212 1.852959007567217 0.301605648597565
-0.414506775909420 1.748035196199314 0.220583511563317
-0.420325908581990 1.769823312739436 0.159146386257224
-0.420585964842608 1.768172675189374 0.095251440362158
-0.419555640714765 1.762474681270207 0.031623760464358
-0.409280910089278 1.734083595137785 -0.031100188271239
-0.409386811317091 1.731828083948677 -0.093262674024926
-0.409909727477987 1.731340501167401 -0.155660156547317
-0.409624865758969 1.728791409520653 -0.218146124695214
-0.407308300948173 1.716343812790672 -0.279391954561852
-0.406312143757876 1.709489788224428 -0.341548101724015
-0.412623543409730 1.734698101183500 -0.411660429449273
-0.457104324323987 1.918723120353018 -0.528508490099347
-0.429881508176755 1.851697187895766 0.509355880761761
-0.437381044446064 1.881020184242140 0.445852989709540
-0.440854818659522 1.892964030452374 0.377801810845559
-0.433023517889762 1.856404008218115 0.301918517527646
-0.408402469060819 1.749471445234652 0.220583511563317
-0.413238292478029 1.767399610729032 0.158797763286233
-0.414411328037970 1.769630021869752 0.095251440362158
-0.409750560825810 1.748352938867307 0.031344521961361
-0.404582996315893 1.741345127520367 -0.031204902709863
-0.404244471799170 1.737137124379903 -0.093472017849898
-0.402959213976868 1.728880041937356 -0.155311533576327
-0.404489634097703 1.734077127452500 -0.218633602068835
-0.401314661527491 1.717755127533952 -0.279391954561852
-0.401237055384088 1.714720902498410 -0.342311337705521
-0.405677134761757 1.732333042775145 -0.410760625231897
-0.453050785947281 1.931591882766353 -0.531614318640578
-0.424599952898441 1.856879034001373 0.510391156942171
-0.433855468430747 1.895832894295552 0.449002304470355
-0.432489932197724 1.886836857785122 0.376275338882546
-0.426540820483793 1.857904232525165 0.301918517527646
