# This PCD file was generated using the MATLABÂ® pcwrite function
# from Computer Vision ToolboxÂ®.
# .PCD v.7 - Point Cloud Data file format
VERSION .7
FIELDS x y z
SIZE 8 8 8
TYPE F F F
COUNT 1 1 1
WIDTH 1005
HEIGHT 1
VIEWPOINT 0 0 0 1 0 0 0
POINTS 1005
DATA ascii
16.773159836728468 25.112294645190666 5.870047933764024
nan nan nan
25.952879473951839 38.899991313178774 5.741752245190119
nan nan nan
20.204619927948634 30.318471030565501 1.909425027567563
17.674986994633134 26.542649398011200 0.556627050910720
14.484628289145510 21.661405856962851 -0.454844616568483
8.353201945083969 12.501450167721242 -0.787970157193762
8.393755354437674 12.571640207978003 -1.322501240452965
7.415316411971092 11.110394263539185 -1.640117623546475
5.453829076497678 8.177671716839169 -1.556835796080378
4.031569176351681 6.049656648668734 -1.413131419758691
3.330868767451020 5.000096653254636 -1.387048201084272
2.769316649630965 4.160275572030915 -1.339129739360442
20.269557518628933 30.073493613335518 9.717619867419243
16.679429590628587 24.765548640484056 6.893400109313400
27.098596987970538 40.266214489185778 9.434359967397882
nan nan nan
nan nan nan
15.330092849289446 22.822188168120594 2.405324188349870
15.477562740888230 23.059114883773919 1.455462943116268
17.506816702141212 26.092221778276787 0.548459324698072
18.352429143531197 27.239349448851083 -0.573311551464763
13.471894350836138 20.010550411836597 -1.264227359004551
8.400887761952186 12.487710798366958 -1.316748961431620
nan nan nan
5.485646521303190 8.163503240219564 -1.557774402870619
4.040623164127358 6.017618008374138 -1.408933621860407
3.358076548073802 5.003001713310899 -1.391097320062461
2.784897930936534 4.152187907399545 -1.339647377450647
23.106630274177238 34.013141982236739 11.017926750014308
16.766804300414236 24.699412114345815 6.892050402987336
27.021170600883167 39.835177392600990 9.356509897284251
20.485254358567335 30.222495560128678 5.782756434677174
30.568747250144845 45.115920176927318 6.691358169003027
nan nan nan
19.909926590350217 29.428961197070983 1.862113323123941
17.680748689164854 26.143832696221839 0.550902661599291
16.041287734875720 23.621770539959314 -0.498405823035942
8.661132975215319 12.763628459542835 -0.808381180128510
8.486854940351083 12.516201510603910 -1.323024174909451
6.847523618400035 10.102352088609583 -1.498505446509693
5.517745927730899 8.146613583470090 -1.558400140730780
4.056049337406542 5.993012654080363 -1.406643913915888
3.366563123212111 4.976133642226382 -1.387048201084272
2.809835343564663 4.156356865943979 -1.344306120262493
22.423219172895330 32.760549874622910 10.637462753713603
16.796812466874222 24.558700658197239 6.869105395444262
nan nan nan
nan nan nan
nan nan nan
15.118008162728177 22.162171177265911 2.347104152194434
20.067653181234714 29.440149221587042 1.867242246835750
17.744875610635432 26.042295254415620 0.550064946090302
16.138324789241658 23.587086893272769 -0.498859585603312
13.759026745473689 20.124676406022225 -1.277625363802745
8.361906115203931 12.239731818744572 -1.296877452085154
nan nan nan
5.519426235684772 8.088143559963296 -1.550891286408849
4.095747196881987 6.006392468838857 -1.413131419758691
3.372936522750497 4.948249486271314 -1.382549179997394
2.786262917010424 4.090640323745011 -1.326188787105316
19.675521299037175 28.542602406195499 9.289015528729470
29.852764414339862 43.322558234740256 12.146457130351335
nan nan nan
nan nan nan
nan nan nan
15.199790479954801 22.115832382263712 2.347801398136415
20.310501205990921 29.574072827931076 1.880221563984000
17.887733814704898 26.056030752193173 0.551670567482532
27.068316141887152 39.267075758795578 -0.832479787058424
8.554022053882250 12.418300019856021 -0.790272939268452
8.481395860821372 12.322069809168864 -1.308730633098835
7.328591059172020 10.651214384903835 -1.587470067195451
5.552102098367542 8.075338948630749 -1.552142762129171
4.097789275652418 5.964550272383613 -1.406643913915888
3.343853436198229 4.868977089491240 -1.363653291432510
2.828945569400920 4.122303709026848 -1.339647377450647
22.403374821685944 32.246239749644360 10.520994183417468
17.379047555198696 25.033131015689250 7.035569175658722
nan nan nan
nan nan nan
32.323924655186893 46.646877023921434 6.968245317219523
nan nan nan
20.267011364390125 29.291122118341224 1.866718887273320
17.845486971125979 25.801010049309379 0.547586704376207
16.312865223264900 23.488628265523548 -0.499173728919183
8.585930720369900 12.371956823334223 -0.789226220143593
8.676495788969483 12.511779145779538 -1.332088372155207
7.084125320407055 10.219339407231816 -1.526779134179688
5.564508917403025 8.033175427633557 -1.547762597108044
4.097354659478825 5.919538794902069 -1.399393172091580
3.348631962230981 4.839647344720372 -1.358704368236945
2.842219205266993 4.110814703969506 -1.339129739360442
20.561369732277686 29.397427817133661 9.612539335107620
22.971450374770530 32.855426193247389 9.255386179923981
nan nan nan
nan nan nan
nan nan nan
nan nan nan
20.244638455025964 29.041607048032098 1.855309648812359
17.873799472485715 25.659647805724848 0.545841463732479
26.912051121481671 38.477255676834197 -0.819599911107708
14.079941561505082 20.145634941451291 -1.288092555051334
8.609563320724943 12.327758898222383 -1.315528781033152
6.956615974030961 9.964660763490389 -1.492168240652626
5.559471590269451 7.969315633036079 -1.539002267065791
4.116962028867362 5.905918929579697 -1.399393172091580
3.324553840852337 4.770957798840946 -1.342507892324186
2.856939448456607 4.102952338492621 -1.339647377450647
20.691239197139581 29.353448999699307 9.622892096911722
nan nan nan
nan nan nan
nan nan nan
nan nan nan
nan nan nan
15.430735634068045 21.972015170725026 1.407104519547788
18.008058487947849 25.660937524639895 0.547202751434587
18.658547718963415 26.479601541151244 -0.565423063755111
14.635418091172168 20.785512879378071 -1.332264102120378
8.739675843625577 12.421470737550633 -1.328776453930796
7.121545358975877 10.125419209449525 -1.519954450948999
5.574761451327912 7.932083211254835 -1.535560708834906
4.139809092837873 5.894725329291326 -1.400156408073086
3.437481610246041 4.896489374352846 -1.381199473671331
2.873462909668505 4.096117787492468 -1.340682653631057
23.898347765816080 33.665559242209710 11.062443625771943
17.040441950334230 24.013717964809395 6.798020862271600
23.593222159284270 33.272624381271896 7.928495375886190
nan nan nan
nan nan nan
nan nan nan
20.504570241751253 28.981088282476041 1.860543244436653
18.031721388705087 25.504849859421469 0.545213177100737
18.651317328814674 26.274076962618057 -0.562421249847898
10.767446751004099 15.179305393739920 -0.975332880543501
8.743807888820937 12.335622231660308 -1.322849863423956
7.646899738639244 10.792113978261222 -1.624030870216995
5.591000760697899 7.896453545698991 -1.532432019534101
4.209118954701555 5.949154094888777 -1.416565981675469
3.453427344060930 4.882869463739723 -1.380749571562643
2.883283687344362 4.079752053817336 -1.338612101270237
20.214498766738718 28.256146152681232 9.309203414247467
16.779638479835025 23.472154069177286 6.661250621230531
23.937458188827883 33.509569866696552 8.004818974036807
nan nan nan
nan nan nan
24.627369856721202 34.539048681489817 3.711265837680780
20.485046552006619 28.740191359701001 1.849657365538121
18.045234080921034 25.335880454053303 0.542944364263890
19.959642442788162 27.910196674223073 -0.598931684114696
14.452702875139380 20.224586394775113 -1.302746622799358
8.585350590354283 12.022896828819029 -1.292519664947771
7.633778886115890 10.694265121123117 -1.613306367997342
5.612794929765466 7.868848279030120 -1.530867674883699
4.221883167081990 5.923234287615092 -1.413894655740197
3.468189083186046 4.867610820805865 -1.379849767345268
2.890784359349803 4.060220287526286 -1.335506272729007
16.568075660573331 22.997574428972264 7.594786059488369
16.835276344328687 23.377068194869718 6.650902872730712
23.969422888566161 33.307887443872389 7.976579242721080
24.039988034701423 33.430552120585496 6.521752847527225
23.994783282638437 33.379978883851123 5.047584465154398
15.865036791250168 22.086668517452196 2.379177465525573
15.906938105715602 22.153160858080128 1.429294964994796
18.135894411495276 25.275985945202009 0.543014173889639
9.417728933761916 13.072424736777212 -0.281228077330387
11.076195280196087 15.385805824575648 -0.993545793316046
8.763394162853213 12.182088297558572 -1.312914108750723
7.745234862175942 10.770699110681340 -1.628905643953201
5.643686282183658 7.854020541335264 -1.531806281673941
4.229937476469735 5.890919089085123 -1.409696857841913
3.487431769199920 4.858641196446255 -1.380749571562643
2.907191452527869 4.053244446907651 -1.336541548909417
16.915567342456850 23.299379850979918 7.714878096415938
28.658845461335439 39.503483145559649 11.267348409975510
nan nan nan
nan nan nan
nan nan nan
24.108695556422070 33.317097444716254 3.597963372108825
15.860089451779571 21.925963515261355 1.418199742271292
18.310699764118251 25.332454320890612 0.545597130042357
9.386957460897712 12.934274906466541 -0.278959264493540
9.453089339072479 13.034967199014943 -0.843864958461226
8.796511181403099 12.138517674330089 -1.311519616866760
7.392655330256399 10.205051237158505 -1.547253183871752
5.395390652195580 7.453439857021944 -1.457343476314791
4.255077422875321 5.882480840491622 -1.411223329804925
3.512363369914516 4.857492298513240 -1.383898886323458
2.914533694230149 4.033676551837459 -1.333435720368187
24.505160687428965 33.518866643420552 11.125595472776958
28.856355370542285 39.485019108761584 11.290743319627273
21.107595995891412 28.903331809965199 6.956895971428824
nan nan nan
nan nan nan
nan nan nan
16.324679469796454 22.403145904535240 1.452741473391635
16.427397672149372 22.560652751107497 0.487131568477457
19.207532862842076 26.272618277871377 -0.568075829533578
9.769514961379834 13.372819988566700 -0.867939498332980
8.818858151522829 12.080381502936287 -1.308556321613340
7.816728663463699 10.711554557305909 -1.628174427892770
5.366672559001542 7.359545054461302 -1.442638636601009
4.279053755152979 5.872352090428939 -1.412368183777185
3.530445149750665 4.846777432126264 -1.384348788432145
2.939964870324878 4.039097449132480 -1.338612101270237
32.426534007249359 44.014438917324412 14.648640314712468
17.082618838481991 23.204199043353608 6.652252579056776
28.935507487563417 39.333337276002105 9.491602666010845
nan nan nan
nan nan nan
nan nan nan
21.687977873555042 29.546214909504695 1.920834266028524
18.813536893854398 25.649037881321487 0.555230858395738
20.039072391433198 27.210153455642669 -0.589856432767308
10.999943217887175 14.947251661987989 -0.972611410818868
8.864513908928817 12.054339660874637 -1.309079256069826
7.862301658635435 10.695399845849542 -1.629880598700442
5.409871205180904 7.364647213463186 -1.447331670552216
4.270483017802998 5.817813433185459 -1.402827734008357
3.534660620774781 4.817141715553877 -1.379399865236580
2.956330685322598 4.031926311716228 -1.339647377450647
17.098759545620762 23.040297197721291 7.687960915725276
32.247503178376213 43.468831294011146 12.495581166693013
nan nan nan
nan nan nan
nan nan nan
nan nan nan
21.774745261278309 29.437623121531733 1.918950171603779
18.477137586116296 24.997781440492606 0.542595316135144
19.156700867042147 25.813339273347399 -0.561094866958665
9.629398132564882 12.984924461231861 -0.847214459660775
8.896773366704531 12.005760945286655 -1.307336141214873
7.933353013552423 10.709579243828447 -1.636461543244320
5.443879306665864 7.354295867355763 -1.449208884132699
4.330305614068915 5.854208769766809 -1.415421127703209
3.548816761693697 4.799453442992084 -1.378050158910517
2.976828701657645 4.028832406696379 -1.342235567901673
nan nan nan
32.529691955853792 43.530836850743626 12.545970202866039
nan nan nan
nan nan nan
nan nan nan
nan nan nan
21.965675705489080 29.479951318424717 1.926695893127734
18.609664244963461 24.994081336889721 0.543921699024378
nan nan nan
15.572218888526997 20.846139949934795 -1.363665675866145
8.914790752041920 11.942699914825640 -1.303849911504966
8.025298105489071 10.755006382154008 -1.647673522837594
5.456528500896805 7.317828746168879 -1.445767325901814
4.327253925867518 5.807571630731053 -1.407788767888148
3.569040571950559 4.791725097243804 -1.379399865236580
2.973572192806841 3.995171031825359 -1.334470996548597
17.376563123871861 23.076233188426919 7.740242362835986
21.189145847372878 28.149600326311869 8.134230125074160
nan nan nan
nan nan nan
nan nan nan
16.519304722680577 22.001648176376825 2.407067303204824
nan nan nan
nan nan nan
18.932272905730546 25.142229867043337 -0.549366849832810
nan nan nan
8.976779752087131 11.938580339603213 -1.306813206758386
6.802085526858248 9.049654826109125 -1.390041730879112
5.472548592728245 7.286101553343827 -1.443264374461170
4.351035281679862 5.797141884305434 -1.408933621860407
3.575219399665839 4.765208554619569 -1.375350746258391
2.993294046192519 3.992495395550047 -1.337059186999622
17.393296853177265 22.923128977008414 7.710219353604093
21.240181452048855 28.013351046959553 8.116234040726649
nan nan nan
nan nan nan
nan nan nan
nan nan nan
nan nan nan
nan nan nan
20.209042987491770 26.643738034415296 -0.583713185701384
10.937495558646441 14.430526610363085 -0.948955558597058
9.000354470255647 11.883348921596975 -1.304198534475957
6.843219295626310 9.038517187298908 -1.391991640373595
5.482454599355143 7.246475235286502 -1.439197078370124
4.361772755975447 5.769390084284570 -1.405880677934382
3.595356159170379 4.757363760799608 -1.376700452584454
3.008376452096710 3.983564152797422 -1.337576825089827
35.642193743755733 46.668676936212698 15.734645027962648
21.349515798436482 27.964447110448305 8.122532670248278
nan nan nan
nan nan nan
nan nan nan
nan nan nan
23.301209905961208 30.609369469866941 2.016085706390682
nan nan nan
nan nan nan
nan nan nan
9.020380475623265 11.828089163356884 -1.301409550708032
8.277632019102692 10.858080442398393 -1.676434687881209
5.501666411380922 7.221969478037351 -1.437945602649802
4.390394073705346 5.767391258338930 -1.408933621860407
3.622913398264064 4.760922864593458 -1.381199473671331
3.026247238557163 3.979717145126617 -1.339647377450647
17.491939274772147 22.738364818513034 7.686925639544866
32.368885142879037 42.092610523765501 12.258932657523268
nan nan nan
nan nan nan
nan nan nan
17.695674916232853 23.069788374081380 2.543727507833151
24.059315978224411 31.377383254174745 2.072189851483118
nan nan nan
18.868276710662563 24.527512507573988 -0.540151979233925
nan nan nan
9.059185821984203 11.793370031720215 -1.301060927737041
8.102699839702870 10.552015410623330 -1.633536679002597
5.525639738194362 7.201153907994531 -1.437632733719722
4.403331619748029 5.742682957117744 -1.406643913915888
3.647808605484459 4.759074154677566 -1.384348788432145
3.041295305751674 3.970662991785278 -1.340165015540852
17.579076028593516 22.695507319466671 7.692102020446916
23.732197975177357 30.650558409494089 8.949452746016325
nan nan nan
nan nan nan
nan nan nan
15.813777573619534 20.475404818619669 2.263434639156682
23.352390949324615 30.258097721821148 2.003106389242432
nan nan nan
19.194413931972143 24.780993106655384 -0.547132941808838
nan nan nan
9.138469592199577 11.815271844315962 -1.306813206758386
8.476412105804155 10.963240589112324 -1.701539772622669
5.617121756340468 7.270328450279714 -1.455153393804228
4.439147606405782 5.749805428584559 -1.411986565786432
3.670713990515503 4.756207742277732 -1.387048201084272
3.054445776657095 3.960555861060670 -1.340165015540852
27.079176428630763 34.697197127871142 11.793348609141461
nan nan nan
23.023503651689470 29.543067180996562 7.280508027587444
nan nan nan
nan nan nan
17.930589005955824 23.049449982432698 2.554883442904852
23.344207619481299 30.019368882546967 1.992953213731301
nan nan nan
nan nan nan
10.214392932912222 13.102084662021301 -0.870660968057614
9.129454707560843 11.718859496474566 -1.299666435853079
8.481697788657872 10.891298416304362 -1.694958828078791
5.536919701855719 7.115048087462881 -1.427933796887227
4.438702952602764 5.707928213551138 -1.405499059943629
3.686097882158553 4.741827027678703 -1.386598298975584
3.059956311636844 3.939190279602225 -1.336541548909417
27.036530659027722 34.406701541750436 11.725020381234394
nan nan nan
nan nan nan
nan nan nan
nan nan nan
17.920004062781764 22.870665179127176 2.541984392978198
23.947221800022223 30.584974037772817 2.035764025938029
nan nan nan
nan nan nan
nan nan nan
9.118648777237819 11.621087383062040 -1.292345353462275
8.649529295494597 11.027189446581628 -1.720795128880682
5.548317445267363 7.078575519732037 -1.424492238656342
4.479180315869546 5.718674464940755 -1.411986565786432
3.703828862084877 4.730465627002899 -1.387048201084272
3.072497580331802 3.926963550706138 -1.336023910819212
nan nan nan
22.475167146541082 28.407494464991274 8.362780396287526
nan nan nan
nan nan nan
nan nan nan
18.325582367825660 23.220872276731111 2.588002625148961
23.719910909016857 30.077764606780299 2.007502609566839
20.448034712371562 25.938208378169811 0.576522794249223
12.319525870727999 15.565684566276591 -0.346500077405827
nan nan nan
8.999793479863232 11.387540340368586 -1.269859171833380
8.595674389268845 10.880106865134929 -1.702514727369910
5.565648323900953 7.049862496892185 -1.422615025075859
4.538026190511818 5.752327648728332 -1.424198341490531
3.711871661485008 4.706796855728663 -1.383898886323458
3.063467598081104 3.887385442230204 -1.326188787105316
24.458809707118004 30.671946086155828 10.511676697793778
22.647057862428131 28.420310864455029 8.389774522808789
19.667625017852941 24.699037174201003 6.137180527291187
nan nan nan
nan nan nan
nan nan nan
23.902057361044864 30.081320638317557 2.013573580491021
nan nan nan
12.279052881452511 15.403747380451925 -0.343847311627360
11.687535634602538 14.672209215113206 -0.983078602067457
9.355901705175441 11.753556746168071 -1.314308600634685
8.516178768551036 10.702469372849148 -1.679359552122932
5.663988892152143 7.123161438717044 -1.441387160880687
4.525101466020659 5.694950274118906 -1.413894655740197
3.725854726123197 4.690759437310676 -1.382999082106082
3.066209243609994 3.863049988859881 -1.321530044293471
nan nan nan
22.433866166940700 27.952017933327504 8.274599582984729
nan nan nan
nan nan nan
nan nan nan
16.450125727918113 20.547808300930939 2.302829034878624
24.026632854782598 30.033085025202492 2.015667018740739
12.720377321367275 15.906052829910854 0.355505519127465
12.310212473708164 15.332724009550326 -0.343219024995618
nan nan nan
9.077827274981651 11.322878446799761 -1.269684860347884
8.591969952401822 10.720696460435988 -1.686915451414051
5.702401886197014 7.120307486388993 -1.444828719111573
4.540046151956626 5.672988723024027 -1.412368183777185
3.726379978803543 4.657943017485365 -1.377150354693142
3.077262530999641 3.849305506541632 -1.320494768113061
nan nan nan
22.479749132498601 27.789917355607987 8.252104477550343
nan nan nan
nan nan nan
nan nan nan
nan nan nan
nan nan nan
nan nan nan
12.452016846936717 15.387939903636195 -0.345522742645339
nan nan nan
9.091183481854660 11.250746159459180 -1.265501384695997
6.727084536933114 8.328040871930188 -1.314482737967921
5.722255409248501 7.089136758732465 -1.442951505531090
4.583981864916918 5.683020299699679 -1.419237307610740
3.740568060190165 4.639049381396789 -1.375800648367078
3.028991840447672 3.759237882313365 -1.293577587422399
27.583514411868748 33.832784515775721 11.696550286273117
22.668932340690670 27.824589840228896 8.285847135701925
20.057688239635606 24.637020632247108 6.175342326366495
nan nan nan
nan nan nan
nan nan nan
22.533788039089703 27.747604044269188 1.873313217759932
20.360902262229761 25.080904892666286 0.563887251988630
nan nan nan
12.433357209010973 15.266550307783815 -1.031855713285881
9.111536064356281 11.195763828321143 -1.262886712413567
8.506214162734544 10.455703850305659 -1.654985683441903
5.689646120822693 6.998611910621250 -1.428559534747388
4.586460625183801 5.645651497932540 -1.413894655740197
3.740768136977912 4.606298457508466 -1.369951920954138
3.067659404195183 3.780143016902701 -1.304447987316705
23.681307032960213 28.860891602358009 10.003356093212426
22.761077364185237 27.749263962587452 8.285847135701925
25.358911967268742 30.938443285407232 7.775848179584954
16.760253907731489 20.462451685926005 4.189314973777383
nan nan nan
16.400477211844791 20.044604304109999 2.265874999953617
15.255297681115540 18.658255217455210 1.263075967967206
nan nan nan
12.792403225502497 15.590362572092026 -0.352015037840008
11.767146886939475 14.351074426144390 -0.972611410818868
9.178918419388804 11.202474449367012 -1.267070188065454
6.440220847028189 7.862810948718178 -1.247942076468710
5.716576568072776 6.984291761138115 -1.429498141537630
4.597699318064731 5.621293129879091 -1.411604947795678
3.735053020777113 4.568221084184728 -1.362303585106446
3.089956285814421 3.781917600894315 -1.308589092038345
23.827547760344665 28.823036672195503 10.020438150189193
18.664039855365150 22.593044753966524 6.765627910446084
nan nan nan
nan nan nan
17.197471685367070 20.854784367468401 3.318989698295787
16.723755452723353 20.294753397059463 2.300737297052680
22.696744393266460 27.562743812681219 1.871219779510213
nan nan nan
12.865853514219427 15.568735654480218 -0.352538610033127
11.753581925521564 14.232910738240514 -0.967377815194574
9.782279963283905 11.854203019176783 -1.344638799110870
6.602791261508144 8.004132133154917 -1.274022115957412
5.748460433154907 6.973440129606980 -1.431375355118113
4.586086920392553 5.567326638699859 -1.402064498026851
3.737349932795783 4.538607694174519 -1.357354661910881
3.084726205119003 3.748732559924227 -1.300824520685269
23.959989324711273 28.798530583641355 10.038037845256165
18.731381867775163 22.522038705617000 6.762928497793958
18.825326388929913 22.651072786632692 5.725033097277850
16.899148053473084 20.347895102867071 4.189314973777383
nan nan nan
nan nan nan
17.551375132498254 21.163270614618732 1.440913547280730
17.252767915999137 20.817997702605325 0.471947974877021
12.926363222085996 15.536745928453632 -0.352782943723249
11.302740979164934 13.594894510963892 -0.926555769325078
9.582172792367919 11.533588786605367 -1.311868239837751
8.629374589199266 10.390441481947157 -1.658398025057247
5.771553586971741 6.954339205522991 -1.431375355118113
4.604523624965559 5.552088015378246 -1.402064498026851
3.774767366720694 4.553193352514761 -1.365452899867261
3.007171824162534 3.629883649361924 -1.263036940100301
24.083995210295196 28.732727411732537 10.045802416609240
23.041858047123522 27.508934259234287 8.284497429375861
19.005088076349899 22.705660595943520 5.755562536538098
nan nan nan
17.339026205723066 20.737242671576549 3.318989698295787
nan nan nan
15.365344093436045 18.396310711563725 1.256167621743138
nan nan nan
20.324200527328586 24.255808825604124 -0.552368663740023
nan nan nan
9.436984270488498 11.278503896322123 -1.286593074440930
6.536128041585444 7.814349500799033 -1.250866940710434
5.778057836849881 6.912931097693493 -1.426995190096986
4.603739336448306 5.511872611074875 -1.395958610174802
3.818115422068694 4.572898528124989 -1.375350746258391
3.018586529087187 3.617881200159191 -1.262519302010096
23.478820269940702 27.812958117778869 9.752819257553186
nan nan nan
19.100837095430798 22.650859477167039 5.759378716445629
16.917029209821234 20.075391034637132 4.158028080769337
17.414915536769961 20.673552675575010 3.318989698295787
19.819722522951395 23.545016390080036 2.692589516446152
14.748542188492999 17.526870510374575 1.200482164300645
nan nan nan
nan nan nan
10.516293055699920 12.466403064744478 -0.854750837359759
9.728666530803631 11.540892943023314 -1.320583814112517
8.670246911637470 10.288957650846102 -1.652060819200179
5.780453223469740 6.864508882057166 -1.421363549355538
4.560707724672604 5.419853210195110 -1.376877710637147
3.818542451791088 4.539486949452278 -1.369502018845450
3.036798696405730 3.612708426891188 -1.264589854370916
17.709544105372828 20.823366452096892 7.324578976401337
30.100768348533347 35.418351214085838 10.731065096419735
nan nan nan
16.811513673204797 19.802427853516996 4.114226430558072
nan nan nan
16.812225514428501 19.831311478861668 2.274590574228383
15.109208321690444 17.828779431566062 1.224766047997371
12.826251205329999 15.145618709294663 0.346430267780078
11.418878521016293 13.431379125498280 -0.307720830302183
11.141655849256994 13.114571656978107 -0.901853197978408
9.789523735471539 11.531164965885688 -1.323372797880442
6.627843574980015 7.809756803170280 -1.257691623941122
5.781381852549155 6.817171483683478 -1.415731908614089
4.748414343688427 5.603101776138180 -1.427632903407308
3.819249192492660 4.508287267135366 -1.364103193541197
3.110553469186306 3.674334154862272 -1.289954120790963
23.597245901150508 27.570309870651482 9.723831524501705
23.176634491990150 27.088449131003891 8.230509176333333
nan nan nan
16.999392105426210 19.896697991069619 4.144887585705957
nan nan nan
15.504279273280764 18.166015190755882 2.089471776632357
15.021763378893496 17.606884508651973 1.212938121886466
15.030040920874990 17.629045719904106 0.404372257151859
12.972992373030664 15.157252722302443 -0.348245318049555
9.538996957586440 11.152954464936599 -0.769129212946302
9.817352773005403 11.486521748938529 -1.321978305996479
8.692369551524006 10.173860966371670 -1.643042487788198
5.760346780053155 6.746883636094578 -1.405094364991354
4.722370044661362 5.535050838325403 -1.414276273730950
3.845559348141729 4.508941843677695 -1.368152312519387
3.113949209537801 3.653706853127167 -1.286330654159528
23.593429339746418 27.362202236255829 9.680867563014687
18.572063219051870 21.553940373068713 6.568570786840858
nan nan nan
nan nan nan
18.530417103536912 21.543597389190261 3.489119301689372
nan nan nan
17.159209586287442 19.970562997876900 1.379889822301457
15.058919339030821 17.538544306288408 0.403499636829995
13.110685050900431 15.210329823516151 -0.350514130886402
10.637587970778734 12.349886703128881 -0.854227477797329
9.884683389450050 11.483893762010606 -1.325638847191881
6.623880472289527 7.698253339957523 -1.246967121721469
5.768408161996177 6.708761260863097 -1.401339937830388
4.746780029543426 5.524489291908634 -1.415802745693962
3.842228984998198 4.473316462337610 -1.361403780889071
3.115360048652393 3.629621588943252 -1.281671911347683
23.798011096421352 27.415111585585151 9.727454991133140
18.659959410293933 21.503698940096136 6.573069807927735
nan nan nan
nan nan nan
18.556116002511910 21.421766233181341 3.479857231590581
nan nan nan
15.413536212546457 17.812710457745727 1.234500535858559
14.987944309125934 17.333097530023093 0.399974250729664
17.864458456268085 20.579708111334035 -0.475682789854599
9.530249295339503 10.986512809759704 -0.762220866722234
9.665009612385143 11.149725515253417 -1.290950861578313
6.710511245341666 7.744094535525627 -1.258179101314743
5.787911668504330 6.684104923593913 -1.400401331040147
4.750619429697368 5.490071014804467 -1.411223329804925
3.855270583132674 4.456929622541998 -1.360503976671696
3.140644135701502 3.633340045415199 -1.286848292249733
19.000904013709455 21.727501920475387 7.734030705753525
40.149894479917350 45.943690770267246 14.086435023012827
nan nan nan
nan nan nan
17.319303577423220 19.853490437321479 3.234899851346235
19.896266561148192 22.823596347464782 2.649011645072322
15.411324409244589 17.685016974610733 1.229371612146751
15.132403821738800 17.377189046933250 0.402208158753636
18.000676456908280 20.590994606799750 -0.477393125685453
12.419919329765833 14.217172319973633 -0.989358916816610
10.254184553985745 11.746312869520004 -1.364161685486346
6.673546928590325 7.647335709862870 -1.246235905661038
5.816401502504051 6.669815812372118 -1.401652806760469
4.734929271079912 5.433491782341501 -1.400919644054592
3.855444347155007 4.425812345177766 -1.355105151367443
3.162186709335360 3.632554728401618 -1.290471758881168
nan nan nan
18.772291583461239 21.330480903610663 6.560022646775791
19.683815932782473 22.381971420034919 5.793724335613406
nan nan nan
17.222108819425841 19.603515093078389 3.203945038121327
nan nan nan
14.853780756105984 16.925568891452016 1.180175813278383
nan nan nan
9.919560423529910 11.267380221576021 -0.262030430249375
11.764995883857440 13.372973214577213 -0.933464115549146
9.524239765797642 10.833585492909739 -1.262015154986090
6.715925548243628 7.641887293161583 -1.249160769902762
5.835737590382772 6.645019375908189 -1.400714199970227
4.674873148646371 5.326919040708693 -1.377640946618653
3.867014378560427 4.407932620971846 -1.353755445041380
3.148103826051340 3.590988535553948 -1.279601358986862
25.487141278416502 28.747256171470333 10.294268699907660
18.889288555714611 21.312950382730460 6.574869416362486
19.740997089738968 22.289610373581006 5.787618447761357
nan nan nan
15.151654390905666 17.125829902134075 2.807625933367788
20.385038219526372 23.057307181984054 2.692589516446152
15.894170766246260 17.984057501569033 1.257842372342912
15.729892815196340 17.810704383641234 0.414773891388480
17.878667706382103 20.165566429970855 -0.470412163110540
11.481812092074525 12.959585597290525 -0.907400809340160
9.490679241704170 10.719719162460180 -1.252602334769343
6.817550218381133 7.703129229642337 -1.263053875050949
5.834032830204035 6.596494102712863 -1.394769690298699
4.842953072686506 5.479741461036541 -1.421527015555259
3.884957885680701 4.397328209508934 -1.354655249258755
3.160619535939204 3.579977724947241 -1.279601358986862
19.569735487707945 21.918334520953906 7.873275352018681
18.966164816768870 21.249792359005138 6.575769220579861
19.800387108575254 22.200053445224459 5.782275795890814
nan nan nan
18.613062844489740 20.890843768237644 3.435496790591107
17.553315983565042 19.715261332689391 2.309452871327446
15.721819431636138 17.664396139967693 1.239315443832910
15.993969048494762 17.982808105360228 0.420079422945414
15.871309202942815 17.776053468586692 -0.415960655026215
10.496479001398091 11.764443625063256 -0.826280077163597
9.509477384813735 10.665705363760503 -1.250161973972409
8.725220126225025 9.789531864518189 -1.610137765068808
5.832060709987037 6.548062040992084 -1.388825180627170
4.771989274234879 5.361612838914883 -1.395195374193296
3.926190656873942 4.412858555023156 -1.363653291432510
3.162827813204011 3.557373379870719 -1.275460254265222
17.837390162404464 19.831300589575193 7.147029111461008
31.871794065758255 35.459393732290643 11.007304991154003
nan nan nan
17.780776271519148 19.803088133203055 4.215283094974061
17.726058592305197 19.756015143821063 3.259029981340454
nan nan nan
14.891569385819240 16.614418024014235 1.169289934379851
nan nan nan
15.946632711644792 17.735413933454137 -0.416309703154961
10.836491983039860 12.060518323492762 -0.849726585560436
9.868775926532154 10.991209633124280 -1.292345353462275
6.859227925648181 7.642050755674575 -1.260860226869656
5.829821860891265 6.499724464942465 -1.382880670955641
4.773641044640812 5.325917353464439 -1.390234340313506
3.981883482242153 4.444119425297507 -1.377600256801830
3.195844445861169 3.569339373711883 -1.283742463708503
20.397838703248787 22.527266690630977 8.142964797015507
25.992810383301588 28.716396016775629 8.942254312277322
nan nan nan
17.870991328936135 19.764344504578709 4.220288997855349
17.856131462486886 19.761772256337085 3.270241960933727
nan nan nan
15.587814059455084 17.269544732031072 1.219218436635619
nan nan nan
15.858117078793285 17.513621802898570 -0.412400364113009
10.887905378025341 12.032985310263170 -0.850459288947837
10.056744169089781 11.122212119843054 -1.311868239837751
8.737443906615706 9.666528622012075 -1.599900740222776
5.841881901786437 6.467607687317365 -1.380377719514997
4.811934709242304 5.331082433490221 -1.395958610174802
4.007815914980569 4.441767621742328 -1.381199473671331
3.204403306152618 3.553857820851930 -1.282189549437888
18.044856010561517 19.789366584238483 7.176016844512490
26.019375061391028 28.544837817747158 8.917059794190809
nan nan nan
nan nan nan
19.477426793312695 21.405412555221943 3.553466315007290
16.418418965858883 18.056264672518296 2.135141385832130
nan nan nan
nan nan nan
16.202101721011591 17.768461560710580 -0.419730374816668
10.138857744240818 11.126843989909583 -0.788912204406135
10.299402096365032 11.310960850875716 -1.338363585633039
8.745744441212780 9.608078306131343 -1.595269705173380
5.840496907301988 6.420873234591435 -1.374746078773549
4.809385795480178 5.291008758307393 -1.389852722322752
3.986601602614441 4.387367278921052 -1.368602214628075
3.193413122764725 3.516906785303733 -1.272872063814197
18.069398405760239 19.677877659148958 7.158417149445519
25.923821768310653 28.241368697473934 8.850474282105026
22.324697128600164 24.337535916084327 6.419577840448473
18.619115598473893 20.312080659150233 4.364208705692361
19.557391399477886 21.343147492989271 3.554441269754531
17.904913494556052 19.553482976991724 2.319562937486174
15.540509466797316 16.983278588592789 1.206448463312341
15.484964847452671 16.928508768476153 0.400462918109907
nan nan nan
10.821755893761628 11.793334119098057 -0.838840706661904
9.656120389375834 10.530424201783651 -1.249987662486914
7.162885580480363 7.814179405755800 -1.301564587566975
5.829517081939274 6.364031143674599 -1.366924355521537
4.917966182319534 5.372663326028056 -1.415802745693962
3.967687878822577 4.336045014649935 -1.356904759802194
3.195240780572167 3.494332855869437 -1.268730959092557
18.827491049311924 20.353207311238179 7.429141870622756
18.634371683227361 20.158549716148979 6.337771005084052
22.540066183851604 24.400788351028492 6.456976403542277
nan nan nan
26.718220761255193 28.954258512165772 4.837481717123924
18.045993739377067 19.569958249275750 2.328975757702922
16.521808657420408 17.923333383312947 1.277520691890259
nan nan nan
10.091419801080100 10.913014680030139 -0.259447474096657
10.911653840523254 11.808294572621369 -0.842608895511396
9.431947451774819 10.214147383908472 -1.216345545786317
7.229165978248907 7.831429173874721 -1.308633009484474
5.842320609028075 6.333479791188649 -1.364734273010974
4.757053336103512 5.160588324988901 -1.364284316942295
3.978837657558024 4.317869543165182 -1.355555053476130
3.187789565905018 3.461841338435131 -1.260966387739481
18.684235921720759 20.064455381779993 7.346319776189949
18.687363313076069 20.074837899087282 6.331922277671112
22.611731697860890 24.307585498194829 6.453160223634745
nan nan nan
nan nan nan
15.728073071589680 16.937274839676434 2.022187543231165
27.221350044516953 29.334704086793426 2.097311110479731
15.311739332153484 16.506256962123462 0.392993288154750
16.404996822325533 17.616847066095001 -0.420184137384038
nan nan nan
9.486538803077119 10.201588035772970 -1.218785906583252
8.598545429057243 9.249898860663537 -1.550665525487096
5.842882144961418 6.289891175493861 -1.359728370129687
4.653491743315318 5.013014718359905 -1.329557079783764
4.011117759410997 4.322524501436476 -1.361403780889071
3.224812038276238 3.477607056048235 -1.270801511453377
19.005237507731433 20.266857595049579 7.444671013328906
18.277528603025488 19.497660279760581 6.169957518543529
29.093323703473104 31.057193001763800 8.271951567563971
18.955829422557734 20.242473362613225 4.392366909399602
16.302108978697902 17.420813536400136 2.929495276772935
15.365239119258955 16.431145197982477 1.968150982727617
15.541590934129003 16.631363972519768 1.192945786601662
nan nan nan
16.429458722214125 17.520091509059199 -0.419241707436425
11.123565497797532 11.870279881433136 -0.852552727197555
9.418590204294958 10.057885470151332 -1.205538233685608
7.248391078092193 7.743090366183771 -1.302295803627406
5.832415053927887 6.234835444483199 -1.352219515807756
4.729952415824102 5.059845103973062 -1.346348271376900
4.040817571192690 4.324158836627189 -1.366352704084636
3.251435068363785 3.481860588387554 -1.276495530445632
18.831314403928044 19.934454212373012 7.347872690460564
18.678568787819323 19.786592223577617 6.281983143606775
23.009899495392421 24.391911390330293 6.518035282062772
19.014721654796258 20.170877933831445 4.390489695819119
nan nan nan
18.342818590885638 19.478544350683066 2.340828938716603
16.019987216869801 17.017841146597757 1.224870719909857
15.843128481516414 16.841741579949517 0.403604351268618
16.132174934348932 17.083170782914156 -0.410131551276163
11.262257505155636 11.934513256207421 -0.859984432984053
9.593067569593547 10.172799204906733 -1.223318005206130
7.274013682898056 7.716297127586248 -1.302052064940596
5.805381206688018 6.162675508466990 -1.340956234324859
4.743548692091673 5.039015139048329 -1.345203417404641
4.051880610405829 4.305769888780334 -1.365002997758573
3.305918862248848 3.515524490550495 -1.293059949332194
18.922088067313567 19.890994250199014 7.356154899903845
18.550152472973746 19.513649240162536 6.215847533629678
23.178736928146463 24.399693217857603 6.541695597489462
nan nan nan
28.885330957369607 30.438787675039009 5.152392100482825
nan nan nan
16.579147029529693 17.495220902985753 1.263180639879692
nan nan nan
16.402544754911595 17.248464992300146 -0.415471987645971
10.860829727033620 11.428936209221982 -0.826280077163597
9.559920083600767 10.067013704666460 -1.214602430931364
7.317304654591047 7.708135429933887 -1.304976929182319
5.837733666067762 6.153838400562802 -1.343459185765503
4.754355891659189 5.015302355660544 -1.343295327450875
4.092354169773055 4.318475497316672 -1.373551137823640
3.280976931239030 3.464687453230708 -1.278566082806452
19.027487782056440 19.862488561476273 7.370131128339381
18.825682009689615 19.665563985068491 6.285132458367588
20.020247578082543 20.928043022293391 5.629628599589578
nan nan nan
nan nan nan
16.854671775271182 17.649736955841121 2.135141385832130
16.660798682639452 17.458916028105634 1.264750718566981
16.520717620132931 17.318175330440965 0.417775705295693
11.377113774165888 11.880536362508762 -0.287126990706188
10.837137562358297 11.324577715320412 -0.821465169189246
9.578478162792013 10.016302606452221 -1.212510693105420
7.335936194007011 7.673936806711959 -1.303514497061457
5.850991982954313 6.124853192306940 -1.341581972185020
4.748787811494926 4.974534668638335 -1.336807821608073
4.036099112699633 4.229444027984085 -1.349706326063190
3.287718082520450 3.447621349658397 -1.276495530445632
19.045737417567761 19.743115535782284 7.350460880911590
28.718662683912875 29.791028834049200 9.553221375875260
20.095902240230235 20.860859640222017 5.630391835571084
19.087906324244752 19.828341813697413 4.359202802811073
15.924342470148019 16.547840230209701 2.819812867708302
18.485022843263796 19.222205869145892 2.333159233354809
15.866391172801265 16.510674692563693 1.200063476650702
nan nan nan
12.595624553585054 13.061387008037668 -0.316726272023821
10.948668879598404 11.361464375017039 -0.826908108638512
9.628585530696141 9.998592952049208 -1.214428119445869
7.430137635912682 7.718358748469160 -1.315457692715162
5.872336064172653 6.104392104159545 -1.341581972185020
4.768844413305305 4.960758674596606 -1.337571057589579
4.049487758838477 4.213924535802088 -1.349256423954502
3.266280221038000 3.401289071159605 -1.263554578190506
19.113794932759411 19.682620849894008 7.351496157091999
19.687351335456324 20.280327286393991 6.525380184406836
20.210974545783984 20.834268378999280 5.642221993284430
19.184502613135944 19.789958385279146 4.365460181412683
22.054867390571356 22.758857639066452 3.891288134926359
18.618537674452327 19.226265003675508 2.341526184658584
15.951705849031253 16.483895148232989 1.202156914900420
nan nan nan
11.720290454029024 12.069085917726845 -0.293654190713732
11.024424985513019 11.360443323281942 -0.829629578363146
9.681459844900379 9.983515942356856 -1.216694168757308
8.549959105670968 8.819792637272267 -1.508254993982105
5.877115285200059 6.066830917723252 -1.337827545024054
4.865331535044669 5.025895704862132 -1.359704901053258
4.023517153562957 4.157751873946224 -1.335759360693870
3.299620184378791 3.412086432736052 -1.271836787633787
25.554057489852219 26.122291524872601 9.791642114318565
31.713098055360224 32.440933683461587 10.473721090250356
15.326893309046250 15.689607685469522 4.263436192693518
19.322459580613653 19.793547503088142 4.381103627916706
29.166092455566194 29.887605378078675 5.127530754428174
nan nan nan
16.685198426344314 17.121855563859345 1.252922792456075
nan nan nan
11.647702528231935 11.910865200683279 -0.290791996058018
11.057033599261485 11.314749438796627 -0.829106218800716
9.269413704752049 9.492090170254745 -1.160740181913311
7.421440436525450 7.602377596332923 -1.304489451808699
5.847219371251039 5.993960865968244 -1.326251394611077
4.869141234041605 4.994823862642765 -1.355888721145727
4.104648641430926 4.212068648102365 -1.357804564019569
3.355987428117183 3.446220624731855 -1.288918844610553
25.811333983354885 26.210843480486822 9.856864513684402
19.041002805970439 19.342472111762063 6.266236569802704
19.115438114253578 19.431648791158988 5.298384183615896
15.635841174085938 15.905593676142431 3.532603089538493
nan nan nan
16.543854414710726 16.846907679354047 2.065765414604994
16.819197809289602 17.133275464921866 1.258261059992856
nan nan nan
11.652727700634964 11.833089373801419 -0.289884470923279
10.742036516359388 10.915921483536698 -0.802624224941787
9.897604353650802 10.064845293296326 -1.234996874734316
8.484686899470951 8.631066329577438 -1.486074773482368
5.826577159295717 5.931238346086419 -1.316865326708664
4.819155598639387 4.909147351498835 -1.337189439598826
4.113866820627346 4.192151517129465 -1.356004955584818
3.370701755296377 3.437243669438688 -1.289954120790963
24.260985847223051 24.456551627140236 9.230522424536300
29.260773544949419 29.517242650153531 9.595512174091905
20.551007241095547 20.745614426493091 5.676185994461455
19.633178377549864 19.826013903788350 4.419273637386522
22.375762156770598 22.611316100321147 3.905912456134976
16.602560306021246 16.789056213401324 2.065765414604994
16.089787356724187 16.276204146798307 1.199435445175787
nan nan nan
11.710858652496890 11.809380576414553 -0.290303328677774
11.238382569546326 11.340844555381317 -0.836747268412186
9.383120201704211 9.475280466693379 -1.166666772420152
nan nan nan
5.862527015845262 5.926311392262954 -1.320306884939549
4.754829861047048 4.809919471642464 -1.314673978144394
4.102449540816544 4.151429620668464 -1.347456815519751
3.344671805157475 3.386968505252791 -1.275460254265222
26.009618702830874 26.055053712245218 9.864629085037476
19.128171960230517 19.168275921331258 6.251839702324697
15.332376115675663 15.375252080939367 4.220694977729171
14.628254266489401 14.679405834910762 3.282307945474124
22.436611205636169 22.522927429415862 3.903475069266874
21.622835374038281 21.721179994096001 2.681433581374451
26.132209217559279 26.260228347751276 1.941559304700730
10.666983123391947 10.726725784231421 0.264054909396100
12.421018330466810 12.442716037427777 -0.306883114793193
11.036135049977188 11.063134414421246 -0.818953043289585
9.345565523414578 9.374971698704323 -1.158125509630882
8.457765260355853 8.487340078411755 -1.471206713586940
5.911418486778632 5.936232184601333 -1.326877132471238
4.894004233229253 4.917979480016768 -1.348637979321419
4.120316686275557 4.141947292207544 -1.348806521845815
3.327283714650411 3.347087029409948 -1.264589854370916
27.156973623559228 27.005722449878267 10.262175138314946
21.664783686522973 21.559167439527013 7.056264672658358
16.006398530826608 15.939491118174537 4.390896601605049
14.564402290882366 14.508586091531862 3.256026955347366
19.574002908723426 19.512605756907444 3.393573736459737
19.131319678526403 19.084630064810511 2.364186677772976
21.122892366872119 21.078698947636461 1.563903044451648
11.690605930228433 11.674294150146297 0.288383563969673
26.071413981937074 25.935260515427753 -0.641899508763288
10.913321079316102 10.863910024511300 -0.807020445266194
9.306245100134376 9.270580112217987 -1.149235623870621
nan nan nan
5.967072569378574 5.950432582283479 -1.334698855723250
4.893075484252926 4.882838167673761 -1.343676945441628
4.137508016751453 4.130292997440068 -1.349706326063190
3.326646293583921 3.323164460496936 -1.259931111559071
31.133024582360488 30.754967648712434 11.726055657414806
21.820302199854069 21.562858321046427 7.082358994962246
nan nan nan
nan nan nan
20.522308879728453 20.315607843734885 3.545666677029361
17.360559870349633 17.197706670447307 2.137930369600055
21.221878121584822 21.030143214641416 1.565787138876393
11.658870255253085 11.561603991301187 0.286603418513070
12.617122399074526 12.463909189961560 -0.309570785384535
10.644373320194299 10.522459765362690 -0.784411312169242
9.524101609068689 9.421594528042489 -1.172070428470507
8.364423203912871 8.277286618741721 -1.444882935411429
5.983596267033610 5.925397481309386 -1.333760248933008
4.900328349664621 4.856054982588808 -1.341005619506357
4.133908655101678 4.097989993377903 -1.343857598650250
3.360170002607311 3.333300545406936 -1.268213321002352
22.428980460972113 21.994775779644616 8.417312984824179
21.905173936055721 21.496114319197105 7.085508309723060
nan nan nan
21.612592661897693 21.231222117395681 4.798470780644042
20.627073558844160 20.277246647890969 3.551516405512808
19.386237578534491 19.070765877021110 2.379177465525573
16.597382443473439 16.332994750160946 1.220369827672964
nan nan nan
20.309131037369401 19.922919216604836 -0.496590772766465
8.309374923924338 8.157052094514462 -0.610237249792725
9.254190706293880 9.090893511746428 -1.134942082060005
8.404592311049681 8.259169861671694 -1.446832844905911
6.001426400187942 5.901704629894128 -1.333134511072847
4.879467352183163 4.801739968227831 -1.330701933756024
4.169019333681054 4.104041529546472 -1.350606130280566
3.382794831515940 3.332396936622289 -1.272354425723992
22.689989760378079 22.103609426214895 8.487711765092067
22.090332194222746 21.526964445516466 7.121050576309391
16.343914781810540 15.938224105403522 4.437453996476926
14.851577552769935 14.493047486929360 3.286688110495251
20.689205846522615 20.196801187965843 3.550053973391946
nan nan nan
21.302469180756734 20.817263232645693 1.560972230902043
11.650659046977319 11.393245457035420 0.284439320114847
12.437404983940054 12.115983521540766 -0.303078490189865
8.336367571822679 8.126603099996482 -0.610132577880239
9.462713967574746 9.231051996011479 -1.156556706261424
8.181904234080672 7.984385912991670 -1.403691097340489
6.000791415042031 5.860017886919866 -1.328441477121641
4.823184102268336 4.713326526820265 -1.310857798236863
4.176352158476563 4.082652700683616 -1.348356619737127
3.387501644666552 3.313813862476607 -1.269766235272967
21.058558675624543 20.364444638144079 7.849463999869249
14.774093051577188 14.297105412626884 4.746467246655552
15.635044945756173 15.140833298025724 4.230617045488752
15.772909100170578 15.279675076138695 3.478163895704494
19.379883724788463 18.786973813802227 3.314114924559580
26.174407208828963 25.391353717122300 3.190423119020775
21.667401175631227 21.026524414080285 1.582325301049164
nan nan nan
14.241687581338283 13.777076305947562 -0.345871790774085
8.376164017023070 8.108567572403834 -0.610969953180126
8.820863951822416 8.545027059923502 -1.074455996593130
nan nan nan
5.998520695912873 5.817032554622680 -1.323435574240353
4.914279550028518 4.768925359285957 -1.331083551746777
4.148630106090112 4.027328420594245 -1.334859556476495
3.403205385732130 3.306007368795115 -1.271319149543582
21.033283747615275 20.212517889320043 7.816335162096126
nan nan nan
15.342771020332030 14.759521677129149 4.138265491726504
nan nan nan
28.024216185382919 26.987153469066484 4.777034522794970
nan nan nan
22.046160908458294 21.252581175768142 1.604829762233630
nan nan nan
12.000520957744987 11.532233742012911 -0.290512757555021
11.064846898948810 10.640503440481233 -0.804508319366533
8.876428532081281 8.541978040046883 -1.077767914817541
7.516711799509709 7.236020643757097 -1.281090537874910
5.995015409427843 5.775181161002895 -1.318429671359066
4.948441531816965 4.770316055714433 -1.336044585626567
4.187211916923518 4.037898057795128 -1.342957794432874
