# This PCD file was generated using the MATLABÂ® pcwrite function
# from Computer Vision ToolboxÂ®.
# .PCD v.7 - Point Cloud Data file format
VERSION .7
FIELDS x y z
SIZE 8 8 8
TYPE F F F
COUNT 1 1 1
WIDTH 1001
HEIGHT 1
VIEWPOINT 0 0 0 1 0 0 0
POINTS 1001
DATA ascii
0.470357884194345 -0.864132248605108 -0.017173167934287
0.467219690029535 -0.857653718894414 -0.051184565205599
0.469240366245717 -0.860647713373991 -0.085761250863696
0.462918676843939 -0.848700437633539 -0.118700740476614
nan nan nan
0.439586043594489 -0.804586421457743 -0.178215601681693
nan nan nan
nan nan nan
0.508213064235873 -0.941884062396107 0.286771501973593
0.495394110172354 -0.917359977004938 0.240697628147936
0.498472914548086 -0.922291077658041 0.203784007062150
0.478224318547958 -0.884457374747857 0.159250285410955
0.482776157861283 -0.892131359208119 0.124550468960061
0.474425973522738 -0.875970246157429 0.087155742747658
0.471932877537163 -0.871003993286675 0.051917268593000
0.480438951361370 -0.885964409356805 0.017592025688782
0.463539133065916 -0.858730068377584 -0.017033548682789
0.464223073399666 -0.859279394846683 -0.051184565205599
0.465285657683410 -0.860527822073167 -0.085586939378200
0.463731190036546 -0.857295229987882 -0.119675695223855
nan nan nan
0.443321780886383 -0.818199069914541 -0.180886927616964
nan nan nan
nan nan nan
0.502351742347120 -0.938454625535796 0.285218587702978
0.496788804497847 -0.927673202980055 0.242947138691374
0.493395610309584 -0.920564684439423 0.203020771080644
0.475134072654887 -0.886121300725194 0.159250285410955
0.481536432049872 -0.897309409615955 0.125037946333681
0.467594453366887 -0.870599997421677 0.086458496805677
0.469834973036804 -0.874405407015275 0.052021940505486
0.471660771545371 -0.877068960751270 0.017382596811534
0.464313689745120 -0.867394881134523 -0.017173167934287
0.464993567641240 -0.867936683374426 -0.051603252855543
0.459454504944748 -0.856879030524528 -0.085064004921714
0.462612570443327 -0.862407340888937 -0.120163172597475
nan nan nan
0.444180019891206 -0.826659217321820 -0.182413399579977
nan nan nan
nan nan nan
0.502695897376250 -0.947027869052696 0.287289140063798
0.493547594111597 -0.929401667820931 0.242947138691374
0.485572286268580 -0.913613290346557 0.201112681126878
0.479457102823959 -0.901727662279297 0.161753236851599
0.470940854819316 -0.884965562295575 0.123088036839199
0.465489241579958 -0.873985424650149 0.086632808291172
0.470536645776890 -0.883090734579237 0.052440628155430
0.466714442941074 -0.875181064780348 0.017312787185785
0.464095789572827 -0.874309197527672 -0.017277882372911
0.461024029618548 -0.867790723777990 -0.051498580943057
0.459266750280612 -0.863755131906351 -0.085586939378200
0.465192890331618 -0.874532324766680 -0.121625604718337
0.440012440221674 -0.826498759926733 -0.148299872858139
0.439445325696173 -0.824739367187255 -0.181650163598471
nan nan nan
nan nan nan
0.501186683728764 -0.952195851204152 0.288324416244208
0.486668515411047 -0.924221631838781 0.241147530256623
0.486041552432959 -0.922249956868295 0.202639153089891
0.475542635665391 -0.901565421514034 0.161440367921518
0.465996012544931 -0.883092757931437 0.122600559465578
0.469879259026933 -0.889699205552179 0.088027300175135
0.462005556844879 -0.874051669107539 0.051812596680514
0.465526230790808 -0.880340373817872 0.017382596811534
0.461041053504765 -0.875923867561516 -0.017277882372911
0.452406796886950 -0.858792336555992 -0.050870549468141
0.456248884196808 -0.865353009746335 -0.085586939378200
0.457506733763114 -0.867371756674371 -0.120406911284286
0.439891352730617 -0.833270348677467 -0.149238479648380
0.442983826258627 -0.838419297350275 -0.184321489533742
nan nan nan
nan nan nan
0.499480394808939 -0.957451985010965 0.289359692424618
0.479831658085042 -0.919004979430966 0.239347921821872
0.480091545313264 -0.918720934528988 0.201494299117631
0.466743933974480 -0.892798801452357 0.159563154341035
0.468432401028282 -0.895267256066869 0.124062991586440
0.467695065118370 -0.893098987662841 0.088201611660630
0.456945161223641 -0.872200793354963 0.051603252855543
0.460593202618238 -0.878417992246137 0.017312787185785
0.455205059192133 -0.872209514044067 -0.017173167934287
0.454954521861300 -0.870988105084568 -0.051498580943057
0.457840789402667 -0.875768656603584 -0.086458496805677
0.452636269191457 -0.865445398152295 -0.119919433910665
0.440644419093672 -0.841801205306055 -0.150489955368702
0.435499068357390 -0.831265248349479 -0.182413399579977
nan nan nan
nan nan nan
0.490975582617988 -0.948808570094494 0.286253863883388
0.483788038961162 -0.934519031994420 0.242947138691374
0.481397610956848 -0.929106995068430 0.203402389071397
0.460897437240258 -0.889161293163208 0.158624547550794
0.465304481263400 -0.896896936015962 0.124062991586440
0.461820322950447 -0.889421406799767 0.087678677204144
0.454050326724379 -0.873711282459035 0.051603252855543
0.463058711795476 -0.890665819134514 0.017522216063033
0.451238686823802 -0.872017160066654 -0.017138263121412
0.451911434261006 -0.872570886372570 -0.051498580943057
0.445612025266026 -0.859672744129563 -0.084715381950724
0.445957156841065 -0.859971176923259 -0.118944479163424
0.442253230321542 -0.852100680738997 -0.152054300019104
0.427164698209454 -0.822327049485325 -0.180123691635458
nan nan nan
nan nan nan
0.484133248942787 -0.943641268025180 0.284183311522568
0.476963581663381 -0.929267243809858 0.241147530256623
0.476357300016710 -0.927289111526606 0.202639153089891
0.460499698927400 -0.896035505470912 0.159563154341035
0.463986887556267 -0.902046201066041 0.124550468960061
0.455065033391693 -0.883942331829290 0.086981431262163
0.450997738969796 -0.875290890926473 0.051603252855543
0.454449513632507 -0.881612106858247 0.017312787185785
0.451843288687905 -0.880703762481123 -0.017277882372911
0.449775163108563 -0.875919749146799 -0.051603252855543
0.442608492564150 -0.861222982955654 -0.084715381950724
0.442952580311676 -0.861522618665215 -0.118944479163424
0.437468428736482 -0.850126322625825 -0.151428562158943
0.426988407586893 -0.829049223001670 -0.181268545607718
nan nan nan
nan nan nan
0.481546918821644 -0.947131423965527 0.284700949612773
0.480787329726030 -0.944820921310538 0.244746747126125
0.465989606740102 -0.914950835576318 0.199586209163866
0.462908462673145 -0.908117152569508 0.161440367921518
0.459933501545831 -0.901891906474697 0.124306730273250
0.451070961445383 -0.883750819912953 0.086807119776668
0.451419765281130 -0.884053116741055 0.052021940505486
0.449549306742949 -0.879631798272322 0.017242977560036
0.451486101863426 -0.887622749343580 -0.017382596811534
0.441278200009785 -0.866805097470775 -0.050975221380627
0.445026721963366 -0.873414119755821 -0.085761250863696
0.445351736953222 -0.873675000276262 -0.120406911284286
0.432702821485858 -0.848128985745499 -0.150802824298783
0.424984709403589 -0.832283133817931 -0.181650163598471
nan nan nan
nan nan nan
0.482585496513262 -0.957432080388187 0.287289140063798
0.472219966441199 -0.936054160381922 0.242047334473999
0.467217400545017 -0.925334506030685 0.201494299117631
0.460467590634316 -0.911570890465167 0.161753236851599
0.454095553277279 -0.898177221254714 0.123575514212820
0.452481172088745 -0.894208721982137 0.087678677204144
0.446680886184346 -0.881981655559110 0.051812596680514
0.449187473151314 -0.886547049820966 0.017347691998660
0.446584226799412 -0.885622264723415 -0.017312787185785
0.438249797151772 -0.868340164970864 -0.050975221380627
0.440178579212987 -0.871405474735211 -0.085412627892705
0.439613300529072 -0.869909118224785 -0.119675695223855
0.433305966922314 -0.856685139870664 -0.152054300019104
0.423850342347135 -0.837264736475801 -0.182413399579977
nan nan nan
nan nan nan
0.480103991177895 -0.960838912671457 0.287806778154003
0.468077997109998 -0.935953882034784 0.241597432365311
0.469257085415215 -0.937493395311834 0.203784007062150
0.454787777450423 -0.907794432809506 0.160814630061357
0.454515413780385 -0.906855511819757 0.124550468960061
0.450250398442873 -0.897563608375658 0.087852988689639
0.441807153228917 -0.879965649130969 0.051603252855543
0.449680372286778 -0.895257368986855 0.017487311250158
0.441701840881493 -0.883598417544285 -0.017242977560036
0.436109721821032 -0.871650821736747 -0.051079893293113
0.440702566575450 -0.880062689495462 -0.086109873834686
0.435684919862080 -0.869663531696314 -0.119431956537045
0.434740025716444 -0.867021581075102 -0.153618644669507
0.420044564197862 -0.836984464956956 -0.182031781589224
nan nan nan
nan nan nan
0.473317277167968 -0.955584409878985 0.285736225793183
0.464808056675751 -0.937582077006489 0.241597432365311
0.463363888815305 -0.933849709630500 0.202639153089891
0.450737582041817 -0.907607193012955 0.160501761131277
0.454880178168732 -0.915547591069020 0.125525423707302
0.447114573683536 -0.899129807301531 0.087852988689639
0.442292506491441 -0.888654632805997 0.052021940505486
0.447443923835463 -0.898611655258802 0.017522216063033
0.437726931573491 -0.883343090541600 -0.017208072747162
0.436614144206371 -0.880324931624562 -0.051498580943057
0.433198457511138 -0.872672633824411 -0.085238316407210
0.436178382044260 -0.878290723366830 -0.120406911284286
0.433469403588709 -0.872071640755787 -0.154244382529668
0.417120384135511 -0.838445594913646 -0.182031781589224
nan nan nan
nan nan nan
0.468608857210931 -0.953599029064654 0.284700949612773
0.464275676105598 -0.944364751766162 0.242947138691374
0.459397795556717 -0.933619598623149 0.202257535099137
0.448598128827064 -0.910869021084308 0.160814630061357
0.453596336568501 -0.920612357191019 0.126012901080923
0.441486859518556 -0.895246789717828 0.087330054233153
0.441111170302070 -0.893698398998190 0.052231284330458
0.440920033628504 -0.892918456116306 0.017382596811534
0.433913315919608 -0.882995082982205 -0.017173167934287
0.434573969662874 -0.883560167269993 -0.051603252855543
0.431182152476413 -0.875891907932862 -0.085412627892705
0.435017569896548 -0.883293983151891 -0.120894388657906
0.428828371375696 -0.869960654232806 -0.153618644669507
0.415206337383189 -0.841584843643535 -0.182413399579977
nan nan nan
nan nan nan
0.466801905745723 -0.958784016377843 0.285736225793183
0.462683719419918 -0.949483251151808 0.243846942908750
0.449250983628885 -0.921101017567581 0.199204591173113
0.450615276614072 -0.923080297966782 0.162691843641840
0.443410906121737 -0.907920229123089 0.124062991586440
0.441859049011561 -0.903942351718557 0.088027300175135
0.443255292839507 -0.905997040890505 0.052859315805373
0.433404893168441 -0.885471671376324 0.017208072747162
0.432579779474724 -0.888099889716502 -0.017242977560036
0.427986211832974 -0.877890621185563 -0.051184565205599
0.428995810794766 -0.879182273552199 -0.085586939378200
0.432802478164241 -0.886590981793920 -0.121138127344717
0.424921841984999 -0.869677392674438 -0.153305775739426
0.423478387202912 -0.865956625505950 -0.187374433459767
nan nan nan
nan nan nan
0.466979461205509 -0.967285604803889 0.287806778154003
0.454281346583706 -0.940563834514822 0.241147530256623
0.448596412136973 -0.927966248765426 0.200349445145372
0.452552576452714 -0.935316626042201 0.164569057222323
0.440238971678059 -0.909462490669334 0.124062991586440
0.443913298626381 -0.916237389463695 0.089073169088107
0.436447063134530 -0.900426533149655 0.052440628155430
0.440785490438572 -0.908568898179944 0.017626930501656
0.430346483749634 -0.891405283081177 -0.017277882372911
0.424919194255257 -0.879379223451508 -0.051184565205599
0.426791741246779 -0.882468026306810 -0.085761250863696
0.423652877355884 -0.875587943764539 -0.119431956537045
0.424466472875387 -0.876488952504690 -0.154244382529668
0.427303613440224 -0.881562837172086 -0.190427377385792
nan nan nan
nan nan nan
0.465098063773882 -0.972476250980795 0.288842054334413
0.450995398466225 -0.942143842103435 0.241147530256623
0.449595943600626 -0.938379122206735 0.202257535099137
0.441436842734299 -0.920937242294394 0.161753236851599
0.442213677066095 -0.921732299433401 0.125525423707302
0.438987427331802 -0.914189254783121 0.088724546117116
0.431571583173080 -0.898343955027623 0.052231284330458
0.435878193622314 -0.906497627041074 0.017557120875907
0.427232276818661 -0.892902041897683 -0.017277882372911
0.422709671971196 -0.882658454543913 -0.051289237118085
0.422847556168447 -0.882155779922256 -0.085586939378200
0.417160504234584 -0.869901748724371 -0.118457001789803
nan nan nan
0.416572450865025 -0.867122298262060 -0.186992815469014
nan nan nan
nan nan nan
0.458390972523477 -0.967111070128344 0.286771501973593
0.447539239413578 -0.943790494673605 0.241147530256623
0.447837190797698 -0.943567918619665 0.203020771080644
0.437371862573134 -0.920688254206967 0.161440367921518
0.443944999400098 -0.934104342126624 0.126987855828164
0.433066221326379 -0.910394487926283 0.088201611660630
0.430850895345207 -0.905330048888805 0.052545300067916
0.437712461398361 -0.918921188593699 0.017766549753155
0.420530844405580 -0.887233953836704 -0.017138263121412
0.419471727752803 -0.884201834295724 -0.051289237118085
0.417902241795617 -0.880100077103884 -0.085238316407210
0.417376508121366 -0.878597096641088 -0.119431956537045
nan nan nan
0.412547834624987 -0.866870546922644 -0.186611197478261
nan nan nan
nan nan nan
0.453201220921769 -0.965287243583217 0.285736225793183
0.449214928209339 -0.955929190216480 0.243846942908750
0.439527177732835 -0.934466104428861 0.200731063136125
0.441564104042964 -0.938371486474540 0.164256188292242
0.440681662091428 -0.935648308483750 0.126987855828164
0.431584866147396 -0.915504975005171 0.088550234631621
0.435355793398548 -0.923086364775929 0.053487347280289
0.429380328215869 -0.909593470319451 0.017557120875907
0.424232581889316 -0.903176254725891 -0.017417501624409
0.428279381283356 -0.910965267787570 -0.052754643892887
0.408889346193067 -0.868934091511792 -0.084018136008742
0.415998138465402 -0.883640695171893 -0.119919433910665
nan nan nan
0.409519378340969 -0.868305326333402 -0.186611197478261
nan nan nan
nan nan nan
0.451966814502912 -0.970129941937625 0.286771501973593
0.446209576242975 -0.957335720895821 0.243846942908750
0.436589301735283 -0.935842306108534 0.200731063136125
0.440449495326018 -0.943257224989732 0.164881926152403
0.434379298135162 -0.929834057298814 0.126012901080923
0.429550508015248 -0.918661154060709 0.088724546117116
0.432453688433622 -0.924449517843497 0.053487347280289
0.427368595409349 -0.912748927301482 0.017592025688782
0.426459931843133 -0.915380367854500 -0.017626930501656
0.421194999944700 -0.903255592265431 -0.052231284330458
0.413741349597341 -0.886463181097356 -0.085586939378200
0.411540294743520 -0.881345898929671 -0.119431956537045
nan nan nan
0.407621380667079 -0.871365880090583 -0.186992815469014
nan nan nan
nan nan nan
0.453264479883469 -0.982304659731169 0.289877330514823
0.441230943811766 -0.955349120491903 0.242947138691374
0.438262755647223 -0.948052911773559 0.203020771080644
0.436160124598096 -0.943072304288239 0.164569057222323
0.432798743072174 -0.934947539836329 0.126500378454543
0.428016376054207 -0.923770508501990 0.089073169088107
0.425864247043678 -0.918705263103984 0.053068659630345
0.428388037361077 -0.923304954582067 0.017766549753155
0.426614630698468 -0.924125698476067 -0.017766549753155
0.413850711089722 -0.895655000235423 -0.051707924768029
0.417335240321629 -0.902368842437101 -0.086981431262163
0.406794127144138 -0.879173901453848 -0.118944479163424
0.410089363133056 -0.885484483357180 -0.154557251459748
0.412833941587368 -0.890595342429339 -0.190808995376545
nan nan nan
nan nan nan
0.450004548043410 -0.983802337867646 0.289877330514823
0.433027981978803 -0.946251444889959 0.240247726039248
0.438221069853795 -0.956716634798118 0.204547243043656
0.430560630929411 -0.939126519051114 0.163630450432081
0.429532530361034 -0.936452593360980 0.126500378454543
0.427283077702450 -0.930690985095885 0.089596103544593
0.421821134101180 -0.918371246735555 0.052963987717859
0.425162491728160 -0.924794682801199 0.017766549753155
0.420059030695781 -0.918335288471488 -0.017626930501656
0.412384611551052 -0.900726112299255 -0.051917268593000
0.415012868432488 -0.905631379503572 -0.087155742747658
0.407031962135964 -0.887806460423832 -0.119919433910665
0.407819825498681 -0.888705933220132 -0.154870120389829
0.408083777895000 -0.888462852096196 -0.190045759395039
nan nan nan
nan nan nan
0.443207168843296 -0.978406185556144 0.287806778154003
0.434550650439325 -0.958406187378000 0.242947138691374
0.432444812451225 -0.952877196864356 0.203402389071397
0.428748997689984 -0.944295611335527 0.164256188292242
0.432831582335132 -0.952403981963052 0.128450287949025
0.424031756743459 -0.932176811287796 0.089596103544593
0.423576639069456 -0.930745253178046 0.053592019192774
0.427734363579997 -0.939011673138523 0.018010883443277
0.417676330471486 -0.921617351473591 -0.017661835314531
0.414188437698979 -0.913073342901463 -0.052545300067916
0.413496492961838 -0.910702825453198 -0.087504365718649
0.404751456349300 -0.891029219798335 -0.120163172597475
0.407167997559639 -0.895518767138802 -0.155808727180070
0.400100700758414 -0.879160448607838 -0.187756051450520
nan nan nan
nan nan nan
0.435043267186156 -0.969372335568527 0.284700949612773
0.432631423283979 -0.963547985323687 0.243846942908750
0.432168571032601 -0.961618681248851 0.204928861034409
0.431122847842834 -0.958396957947866 0.166446270802806
0.432596671985201 -0.961224857117387 0.129425242696267
0.421430621681267 -0.935541289144775 0.089770415030088
0.423444961179117 -0.939575014779749 0.054010706842718
0.425112107873582 -0.942395906859476 0.018045788256151
0.415114394630018 -0.924966412773900 -0.017696740127405
0.412475883639591 -0.918229052559041 -0.052754643892887
0.400351301206626 -0.890406378356885 -0.085412627892705
0.406369154624406 -0.903368873963867 -0.121625604718337
0.400638981989704 -0.889800237205780 -0.154557251459748
0.401715677150252 -0.891360266148137 -0.190045759395039
nan nan nan
nan nan nan
0.436365859938724 -0.981476487099182 0.287806778154003
0.430849382489373 -0.968613359075595 0.244746747126125
0.422421042577608 -0.948773195700266 0.201875917108384
0.426970703643174 -0.958091702820064 0.166133401872725
0.422771861945112 -0.948224652797298 0.127475333201784
0.423846166510336 -0.949742669715355 0.090990595428555
0.418534115139462 -0.937399918818996 0.053801363017746
0.424267640263762 -0.949351109272511 0.018150502694775
0.423256628960163 -0.951991132834261 -0.018185407507649
0.407644073180708 -0.916013810508015 -0.052545300067916
0.396430068408341 -0.889978443715252 -0.085238316407210
0.407253546804059 -0.913847813931270 -0.122844298152389
0.395116405512152 -0.885781202162848 -0.153618644669507
0.408206664480019 -0.914269303990755 -0.194625175284076
nan nan nan
nan nan nan
0.433108767332427 -0.982918131946093 0.287806778154003
0.424490601061547 -0.962904157957624 0.242947138691374
0.423235352499399 -0.959149578981508 0.203784007062150
0.426017092686466 -0.964997606556769 0.167072008662967
0.420427453608123 -0.951437120848512 0.127719071888595
0.427947727180375 -0.967541989008902 0.092559398798013
0.418656149767133 -0.946088375558940 0.054220050667690
0.434884437073475 -0.981835115070054 0.018743884513642
0.444287254031706 -1.008287134130261 -0.019232551893886
0.408634143070467 -0.926497627888007 -0.053068659630345
0.409569726868578 -0.927741663260366 -0.088724546117116
0.399408725707289 -0.904298132491483 -0.121381866031527
0.391378145800097 -0.885279891398766 -0.153305775739426
0.405967049819236 -0.917413268400743 -0.195006793274829
nan nan nan
nan nan nan
0.429503283177759 -0.984498952862896 0.287806778154003
0.420346987616809 -0.962594151369743 0.242497236582686
0.422243620074960 -0.966017850363611 0.204928861034409
0.417105723259032 -0.953809606815130 0.164881926152403
0.425063752248270 -0.971083983375556 0.130156458756698
0.423768205511243 -0.967204995665365 0.092385087312518
0.423369496112323 -0.965836349449686 0.055266769792549
0.466806498619771 -1.063919370424816 0.020279696280123
0.455163823961046 -1.042820905261405 -0.019860838525629
0.417391584319092 -0.955371589285894 -0.054638738317633
0.412715116288541 -0.943769459018830 -0.090119038001079
0.395454020682514 -0.903868171598850 -0.121138127344717
0.390662816402380 -0.892069074869543 -0.154244382529668
0.388574888173072 -0.886459121233738 -0.188137669441273
nan nan nan
nan nan nan
0.424702981685979 -0.982371356973954 0.286771501973593
0.419305223704327 -0.969421372679766 0.243846942908750
0.420429049625141 -0.971089169673154 0.205692097015915
0.413773765254345 -0.955259766563795 0.164881926152403
0.418512859316079 -0.965276709347602 0.129181504009456
0.418803073006846 -0.965022940282527 0.092036464341527
0.437495332062906 -1.007612813098848 0.057569551867238
0.456713430240551 -1.050870507877453 0.020000457777127
0.443585585260594 -1.026048302266772 -0.019511790396883
0.416433793916040 -0.962321718608935 -0.054952754055091
0.403082939902758 -0.930578367723891 -0.088724546117116
0.394664509787651 -0.910707300866789 -0.121869343405147
0.382829943492564 -0.882553953133683 -0.152367168949185
0.383132491921593 -0.882407604566576 -0.186992815469014
nan nan nan
nan nan nan
0.422792113222230 -0.987399659431628 0.287806778154003
0.415918757066922 -0.970879115005552 0.243846942908750
0.412394415803628 -0.961724655987374 0.203402389071397
0.411994400330766 -0.960329020309809 0.165507664012564
0.421407142289724 -0.981323887826882 0.131131413503939
0.422513189462014 -0.982953029695413 0.093605267710985
0.443443996689033 -1.031151283198470 0.058825614817069
0.444345275637351 -1.032254071804420 0.019616504835507
0.456530871877760 -1.066194030859758 -0.020244791467249
0.424874187966751 -0.991305751914298 -0.056522832742379
0.398261109744694 -0.928317717526168 -0.088375923146125
0.392266109915029 -0.913903547533400 -0.122113082091958
0.379746922956023 -0.883884902197024 -0.152367168949185
0.384703653622966 -0.894560911967065 -0.189282523413532
nan nan nan
nan nan nan
0.420851296997209 -0.992426548145324 0.288842054334413
0.417093944612017 -0.983088773167326 0.246546355560876
0.405197757844654 -0.954123065679035 0.201494299117631
0.410353155527217 -0.965325841636414 0.166133401872725
0.415648376754129 -0.977308659231234 0.130400197443508
0.426103147233980 -1.000920578323411 0.095174071080443
0.444719882846014 -1.043640498324981 0.059453646291984
0.439170862032856 -1.030119838003179 0.019546695209758
0.452806378832735 -1.067781125374874 -0.020244791467249
0.427654426982881 -1.007490693562621 -0.057360208042266
0.395018249847265 -0.929702252603313 -0.088375923146125
0.392179977443030 -0.922574766877924 -0.123088036839199
0.368924998622387 -0.867028385685101 -0.149238479648380
0.390041140622161 -0.915767041275913 -0.193480321311816
nan nan nan
nan nan nan
0.415715664996153 -0.990399790148109 0.287806778154003
0.410640368838869 -0.977352299455554 0.244746747126125
0.404909208349708 -0.962770533150778 0.203020771080644
0.416005801561949 -0.988672493100228 0.169887829033691
0.413775463807440 -0.982412480647464 0.130887674817128
0.424928701195169 -1.007909560442727 0.095697005536929
0.437786890539105 -1.037902457907406 0.059034958642041
0.437905820739638 -1.037173232522502 0.019651409648381
0.447527829283210 -1.065667777557693 -0.020174981841500
0.407881673338485 -0.970312157767833 -0.055162097880063
0.391770576777121 -0.931075459551905 -0.088375923146125
0.385106139834404 -0.914790207752489 -0.121869343405147
0.373567038215706 -0.886514474661952 -0.152367168949185
0.393709161090998 -0.933403248995894 -0.196914883228594
nan nan nan
nan nan nan
0.416879768881509 -1.002475492749366 0.290912606695233
0.404231960074584 -0.971582837567613 0.242947138691374
0.407584331573856 -0.978676982787908 0.206073715006668
0.414071685194994 -0.993765446684938 0.170513566893852
0.414164388117239 -0.993011463721823 0.132106368251180
0.419105076305991 -1.003870923579583 0.095174071080443
0.428181785852268 -1.024605972829309 0.058197583342154
0.435825487744949 -1.042385349926897 0.019721219274130
0.440733911597510 -1.059837819392121 -0.020035362590001
0.403724629558477 -0.969886129055208 -0.055057425967577
0.390817053952917 -0.937954702241272 -0.088898857602611
0.378855295263467 -0.908799874582882 -0.120894388657906
0.375795283696236 -0.900574239456623 -0.154557251459748
0.386665160663131 -0.925713996926709 -0.195006793274829
nan nan nan
nan nan nan
0.408964649030340 -0.993206511402389 0.287806778154003
0.409745552355925 -0.994609905687461 0.248345963995627
0.416140906109260 -1.009133570144845 0.212179602858718
0.409093483770246 -0.991552644635141 0.169887829033691
0.415242053860065 -1.005459801420847 0.133568800372042
0.414076021201110 -1.001645238124307 0.094825448109452
0.421547939717850 -1.018712390094586 0.057778895692210
0.428359589458411 -1.034662258336216 0.019546695209758
0.426372392303930 -1.035482742389945 -0.019546695209758
0.401097731806170 -0.973136040077345 -0.055162097880063
0.382221415346280 -0.926420659967392 -0.087678677204144
0.379467787244104 -0.919291354047272 -0.122113082091958
0.365860244306593 -0.885449501511506 -0.151741431089024
0.368424357936898 -0.890773997243080 -0.187374433459767
nan nan nan
nan nan nan
0.406953835661539 -0.998205812088989 0.288842054334413
0.406445054131619 -0.995963202201280 0.248345963995627
0.411307346447597 -1.006873073716185 0.211416366877212
0.402985797433733 -0.985519267902900 0.168636353313369
0.414912155687121 -1.014180398657689 0.134543755119283
0.412262287432309 -1.006700403573504 0.095174071080443
0.414960492949693 -1.012785068918522 0.057360208042266
0.419614593368877 -1.023126097737536 0.019302361519636
0.425201993431523 -1.042445723709724 -0.019651409648381
0.397868491035028 -0.974460777455399 -0.055162097880063
0.379900963900286 -0.929527358395616 -0.087852988689639
0.375665889037037 -0.918707245509695 -0.121869343405147
0.360677098119572 -0.881173387634667 -0.150802824298783
0.363979749459505 -0.888357474758402 -0.186611197478261
nan nan nan
nan nan nan
0.404913085993116 -1.003203132992083 0.289877330514823
0.404426039370768 -1.000989573225808 0.249245768213002
0.396012863473088 -0.979182015340511 0.205310479025162
0.399370981969357 -0.986989665144474 0.168636353313369
0.408388539412528 -1.008262950050073 0.133568800372042
0.407248498474190 -1.004440538250702 0.094825448109452
0.409346412036611 -1.008603612375187 0.057046192304809
0.417545328221605 -1.028290142841711 0.019372171145385
0.417816710976213 -1.034652524742953 -0.019476885584008
0.388476487316340 -0.961030094908034 -0.054324722580176
0.378148652128601 -0.934541637699354 -0.088201611660630
0.375436367314011 -0.927373070834767 -0.122844298152389
0.357599031618659 -0.882427017247833 -0.150802824298783
0.354972674271430 -0.875068436222815 -0.183558253552236
nan nan nan
nan nan nan
0.404815884433032 -1.013650836707037 0.292465520965848
0.397860978341105 -0.995227129817337 0.247446159778252
0.390962506712777 -0.976981444914949 0.204547243043656
0.398861518390200 -0.995712616518282 0.169887829033691
0.399520925898062 -0.996854691865331 0.131862629564370
0.408757227490711 -1.018870338275988 0.096045628507919
0.404158332853115 -1.006390388785719 0.056836848479837
0.407809346978590 -1.014969455914812 0.019092932642388
0.413279739109830 -1.034320002042407 -0.019441980771134
0.383468091058848 -0.958738623881329 -0.054115378755204
0.377683065970760 -0.943319932364348 -0.088898857602611
0.367605867010286 -0.917686422008259 -0.121381866031527
0.347010456543741 -0.865397072390417 -0.147674134997978
0.355419583918630 -0.885473407163435 -0.185466343506002
nan nan nan
nan nan nan
0.404116002208462 -1.022243981771650 0.294536073326669
0.393667500604077 -0.994797842611940 0.246996257669564
0.394057189605915 -0.994767560852930 0.207981804960434
0.394655256505615 -0.995262559035728 0.169574960103610
0.397502918787317 -1.001933570028006 0.132350106937990
0.407404376899304 -1.025846083157839 0.096568562964405
0.394740254535616 -0.992947224404563 0.055999473179950
0.405003014492583 -1.018244903786022 0.019127837455263
0.397898963990871 -1.006003890519586 -0.018883503765141
0.381589612708846 -0.963785345390404 -0.054324722580176
0.374387963939359 -0.944632545265243 -0.088898857602611
0.365863759058064 -0.922654633622951 -0.121869343405147
nan nan nan
nan nan nan
nan nan nan
nan nan nan
0.393856800253068 -1.005520655826794 0.289359692424618
0.389655417529068 -0.994283435520223 0.246546355560876
0.390039270884351 -0.994241182781199 0.207600186969681
0.387742412428628 -0.987372399198530 0.168010615453208
0.397081908557774 -1.010636624026037 0.133325061685231
0.399624854044005 -1.016066627220609 0.095522694051433
0.397298740913435 -1.009118071943754 0.056836848479837
0.400891275052633 -1.017721791802547 0.019092932642388
0.391643477238753 -0.999870018317220 -0.018743884513642
0.376204253190786 -0.959467145569619 -0.054010706842718
0.369069547545978 -0.940304932073780 -0.088375923146125
0.361350905934080 -0.920167357266777 -0.121381866031527
nan nan nan
nan nan nan
nan nan nan
nan nan nan
0.390168737354944 -1.006957459275604 0.289359692424618
0.390410620602934 -1.006538670071023 0.249245768213002
0.384434545541875 -0.990106194138253 0.206455332997421
0.385009107618105 -0.990561048929434 0.168323484383288
0.394990655157396 -1.015716784703765 0.133812539058852
0.393184621588338 -1.010028706392683 0.094825448109452
0.392323476952311 -1.006776844761843 0.056627504654865
0.394430753428528 -1.011662568577740 0.018953313390890
0.391042147846069 -1.008688976787932 -0.018883503765141
0.377910876440403 -0.973808260647045 -0.054743410230119
0.362899144418093 -0.934158798355155 -0.087678677204144
0.362451621225502 -0.932524584492255 -0.122844298152389
nan nan nan
nan nan nan
nan nan nan
nan nan nan
0.391671393304060 -1.020871386697067 0.292983159056053
0.388291498463532 -1.011533936560916 0.250145572430378
0.380976087847276 -0.991442089062951 0.206455332997421
0.383676655665063 -0.997429981697581 0.169262091173530
0.390729725059973 -1.015236749493305 0.133568800372042
0.390372848495640 -1.013254205436278 0.094999759594947
0.391504245848215 -1.015662422966580 0.057046192304809
0.389457221129215 -1.009301979684902 0.018883503765141
0.382504677618227 -0.996978812683143 -0.018639170075019
0.368780716406960 -0.960205666825847 -0.053906034930232
0.362496040091180 -0.942858588085342 -0.088375923146125
0.361332356064088 -0.939342334161626 -0.123575514212820
nan nan nan
nan nan nan
nan nan nan
nan nan nan
0.396151684285559 -1.043974283703174 0.299194816138514
0.381298164551970 -1.003774502669921 0.247896061886939
0.380304211651025 -1.000106132070938 0.207981804960434
0.384232935816269 -1.009907119195782 0.171139304754013
0.379411575294429 -0.996188372303936 0.130887674817128
0.385413980312968 -1.010887345907103 0.094651136623957
0.384397302910051 -1.007692355282234 0.056522832742379
0.386645094371562 -1.012523414452862 0.018918408578015
0.386120036555008 -1.017002834283271 -0.018988218203764
0.366136292857851 -0.963354067100285 -0.054010706842718
0.360619613919106 -0.947842523298647 -0.088724546117116
0.350282867999169 -0.920190447232152 -0.120894388657906
nan nan nan
nan nan nan
nan nan nan
nan nan nan
0.397443294355690 -1.057941357255663 0.302818282769949
0.378477662604258 -1.006923503090826 0.248345963995627
0.378193665016181 -1.005102511997546 0.208745040941940
0.375311366378862 -0.996387052609577 0.168636353313369
0.378732155183939 -1.004936914216061 0.131862629564370
0.383992827595559 -1.017818944876318 0.095174071080443
0.381582786910513 -1.010896583459539 0.056627504654865
0.381694688476332 -1.010125682826891 0.018848598952266
0.374128688816022 -0.995880968317655 -0.018569360449270
0.362771328992574 -0.964626252186468 -0.054010706842718
0.360818738967786 -0.958418685042880 -0.089596103544593
0.349167875533692 -0.926980586081600 -0.121625604718337
nan nan nan
nan nan nan
nan nan nan
nan nan nan
3.190215565609535 -8.587404961953983 2.454639823752307
0.376998366847720 -1.013718059233806 0.249695670321690
0.375367876301465 -1.008256414789699 0.209126658932693
0.374415026115448 -1.005160441802794 0.169887829033691
0.376609105549778 -1.009972787163347 0.132350106937990
0.376953775894424 -1.009820224969608 0.094302513652966
0.376654170984983 -1.008480355092843 0.056418160829893
0.380967598761189 -1.018944128136366 0.018988218203764
0.367863293055359 -0.989683253501771 -0.018429741197771
0.361491491064260 -0.971502303859710 -0.054324722580176
0.353298221556797 -0.948469937631915 -0.088550234631621
0.347316475103400 -0.931913977416238 -0.122113082091958
nan nan nan
nan nan nan
nan nan nan
nan nan nan
2.414962896412968 -6.567213704117684 1.874885162722660
0.378167808865952 -1.027830006302673 0.252844985082504
0.371846117750714 -1.009560550555226 0.209126658932693
0.371763123406304 -1.008249920648564 0.170200697963771
0.373081348179379 -1.011281245170778 0.132350106937990
0.369285034559339 -0.999915877192850 0.093256644739994
0.375900688747274 -1.017282775266644 0.056836848479837
0.374633436520549 -1.012765776751140 0.018848598952266
0.371998212920516 -1.011606333756749 -0.018813694139392
0.361547998322709 -0.982129692451114 -0.054848082142605
0.346540554094798 -0.940349984809593 -0.087678677204144
0.346808369272783 -0.940570725777400 -0.123088036839199
0.337229260769204 -0.913608831031694 -0.154244382529668
nan nan nan
nan nan nan
nan nan nan
2.390216535620411 -6.574205297634838 1.874367524632455
0.378576758942659 -1.040131096725272 0.255544397734631
0.369664061322630 -1.014541627425590 0.209889894914199
0.370094977006194 -1.015173407040934 0.171139304754013
0.369549044930489 -1.012577381035378 0.132350106937990
0.369894771952147 -1.012427228792866 0.094302513652966
0.372347419072474 -1.018588715903012 0.056836848479837
0.368347083005147 -1.006555711582899 0.018708979700768
0.368464781499525 -1.012898686793174 -0.018813694139392
0.354700371308303 -0.974002295228476 -0.054324722580176
0.347350513921568 -0.952785167493037 -0.088724546117116
0.347604513864789 -0.952964995486536 -0.124550468960061
nan nan nan
nan nan nan
nan nan nan
nan nan nan
2.372168864935711 -6.588952497889130 1.876438076993275
0.373804614025133 -1.037713949759737 0.254644593517255
0.363633704326937 -1.008374540066108 0.208363422951187
0.368245407916374 -1.020047101698865 0.171765042614173
0.366189185424837 -1.013797282335772 0.132350106937990
0.367212923086591 -1.015521934095940 0.094476825138461
0.368967609875629 -1.019817863894110 0.056836848479837
0.363645231524522 -1.004011318127635 0.018639170075019
0.369168098413064 -1.025403840398882 -0.019023123016639
0.352145716340652 -0.977052115026671 -0.054429394492662
0.346893880172708 -0.961428301540818 -0.089421792059097
0.347138679565748 -0.961581044505585 -0.125525423707302
nan nan nan
nan nan nan
nan nan nan
nan nan nan
3.087057466202927 -8.674254992441181 2.467063137917228
0.372142124024610 -1.044519582379470 0.255994299843318
0.365387965442417 -1.024430941804420 0.211416366877212
0.365168217172358 -1.023250392389727 0.172077911544254
0.362648141556670 -1.015069344734140 0.132350106937990
0.362994882615196 -1.014921549241079 0.094302513652966
0.364059656594637 -1.017338631998588 0.056627504654865
0.364859277409625 -1.018452316494826 0.018883503765141
0.364915720990308 -1.024802402487216 -0.018988218203764
0.347391741744220 -0.974512782816885 -0.054220050667690
0.346214397085168 -0.970139242707311 -0.090119038001079
0.341109884363142 -0.955308969638406 -0.124550468960061
nan nan nan
nan nan nan
nan nan nan
nan nan nan
3.059149297214116 -8.682088393620363 2.466545499827022
0.371268075321448 -1.053099386146353 0.257793908278069
0.364602458688460 -1.033042300443209 0.212942838840224
0.358661313744964 -1.015079891204566 0.170513566893852
0.360603371469768 -1.020009502249313 0.132837584311611
0.358962540159911 -1.014241478307146 0.094128202167471
0.363350833502612 -1.026071100721816 0.057046192304809
0.360811791717200 -1.017771870939338 0.018848598952266
0.356863495432439 -1.012804577606698 -0.018743884513642
0.346151425210401 -0.981309954309100 -0.054534066405147
0.339678225647092 -0.961888553956490 -0.089247480573602
0.330665450216707 -0.935846260435431 -0.121869343405147
nan nan nan
nan nan nan
nan nan nan
nan nan nan
3.026917595744518 -8.687241070772940 2.464992585556408
2.326144246273484 -6.672276244737486 1.631345046101709
0.368757563973774 -1.056551904881926 0.217522254729261
0.360328548156117 -1.031244210537501 0.173016518334495
0.359661158970632 -1.028757529799187 0.133812539058852
0.352787249120565 -1.007966176653133 0.093430956225490
0.361087209042037 -1.031103210667450 0.057255536129781
0.354610559249536 -1.011476804156817 0.018708979700768
0.353983936272561 -1.015932443586883 -0.018778789326517
0.345355182940992 -0.990055550177643 -0.054952754055091
0.335661666423302 -0.961187399128044 -0.089073169088107
0.335254243958995 -0.959482671883798 -0.124794207646871
nan nan nan
nan nan nan
nan nan nan
nan nan nan
2.291794674259402 -6.652083217982339 1.885237924526761
2.303474574957348 -6.682197702067794 1.631794948210397
0.361224449680000 -1.046697591359575 0.215232546784743
0.356546428919615 -1.032557954019085 0.173016518334495
0.352176481035337 -1.018749810011796 0.132350106937990
0.351873108730966 -1.016722772887834 0.094128202167471
0.358792865126517 -1.036131973981158 0.057464879954752
0.352387677268071 -1.016487226668906 0.018778789326517
0.357600552042674 -1.037958878996437 -0.019162742268137
0.341897140111657 -0.991255032978512 -0.054952754055091
0.336206264820732 -0.973652867548313 -0.090119038001079
0.324124005789961 -0.938131916101711 -0.121869343405147
1.044140544674365 -3.018705442079044 -0.505909059940107
nan nan nan
nan nan nan
nan nan nan
2.268643315940712 -6.664095956491883 1.886273200707171
2.275734726523819 -6.677285740114704 1.628645633449583
0.358836566280889 -1.051668265436843 0.215995782766249
0.355492867913427 -1.041273973126572 0.174267994054817
0.346050144860783 -1.012459316036298 0.131375152190749
0.349612021473552 -1.021715011122443 0.094476825138461
0.349998327686119 -1.022261461825439 0.056627504654865
0.348837327825422 -1.017711096425233 0.018778789326517
0.353975220787824 -1.039200814268819 -0.019162742268137
0.339079569338086 -0.994332804197530 -0.055057425967577
0.333449258213775 -0.976706047506198 -0.090293349486574
0.320847339614992 -0.939257604600559 -0.121869343405147
1.006111054838083 -2.941960559365524 -0.492455695946647
nan nan nan
nan nan nan
nan nan nan
2.243518912401248 -6.666481555632808 1.884720286436556
2.860699292774734 -8.495490780155018 2.069549699963558
0.357488288909106 -1.060417932699338 0.217522254729261
0.351674020239680 -1.042569925586083 0.174267994054817
0.346147772777923 -1.025005314910678 0.132837584311611
0.347141154725025 -1.026764409729427 0.094825448109452
0.346249201255586 -1.023537403491652 0.056627504654865
0.350878017197891 -1.036028994271102 0.019092932642388
0.347612695972882 -1.032910225716233 -0.019023123016639
0.338621405368399 -1.005032497039871 -0.055580785530006
0.336872114063212 -0.998688315535914 -0.092210775827022
nan nan nan
0.994056769230898 -2.941885523244383 -0.491829958086486
nan nan nan
nan nan nan
nan nan nan
2.218405519498563 -6.668773020538930 1.883167372165941
2.820564576164497 -8.473991635371322 2.061901364115867
2.700555486960984 -8.103999623109701 1.660419877766693
0.348032629534986 -1.043791145309766 0.174267994054817
0.348853374053474 -1.045036844127438 0.135274971179714
0.342291893464809 -1.024190601977988 0.094476825138461
0.342674279500929 -1.024739803015908 0.056627504654865
0.345989776201754 -1.033454979936018 0.019023123016639
0.342111442883766 -1.028424938663422 -0.018918408578015
0.337004407450705 -1.011893176451976 -0.055894801267464
0.333383988941019 -0.999858134306639 -0.092210775827022
nan nan nan
0.989413953729256 -2.962200125248175 -0.494645778457210
nan nan nan
nan nan nan
nan nan nan
2.903217455628906 -8.824994645755201 2.489321575796045
2.798541356430957 -8.501808732521541 2.066400385202744
2.675510291557000 -8.118504253987544 1.661564731738952
0.345989638659080 -1.048631180385845 0.174893731914978
nan nan nan
0.338893672999788 -1.025320051453432 0.094476825138461
0.340708189188510 -1.029603565686700 0.056836848479837
0.340675157765317 -1.028901613711657 0.018918408578015
0.339948994323599 -1.033352857850512 -0.018988218203764
0.335521417115343 -1.018696199829870 -0.056208817004922
0.330690451072541 -1.002850348362954 -0.092385087312518
0.310994044486868 -0.942565948584871 -0.121869343405147
0.975867911948650 -2.954210716908717 -0.492768564876727
nan nan nan
nan nan nan
nan nan nan
2.877419457863421 -8.855786495013991 2.495015594788300
2.781507111328313 -8.550441854232071 2.075848329485186
2.686673975388624 -8.249132288095861 1.686369901137903
2.524764836098916 -7.747415994547334 1.290584336581905
0.349120807423460 -1.070033395419732 0.138199835421437
0.335931231339499 -1.028390670001688 0.094651136623957
0.340655222902722 -1.042235964971888 0.057464879954752
0.337703467052092 -1.031985048463641 0.018953313390890
0.339431207525088 -1.044041783008145 -0.019162742268137
0.330727096694137 -1.016062816225373 -0.055999473179950
0.329657177559380 -1.011575911397401 -0.093082333254499
nan nan nan
0.964323751763968 -2.953843452114551 -0.492142827016566
nan nan nan
nan nan nan
nan nan nan
2.848851695897979 -8.873134101798259 2.497086147149120
2.743593002545192 -8.540170319461687 2.070899406289621
2.661831575030580 -8.275744651861286 1.689804463054681
2.495747002330852 -7.754737290206559 1.290271467651824
0.342761344657147 -1.063748087064215 0.137224880674196
0.337665144691754 -1.046680454201740 0.096219939993415
0.334559581898505 -1.035816401735085 0.057046192304809
0.335148687919049 -1.037021445186566 0.019023123016639
0.338658810664941 -1.054798691736861 -0.019337266332510
0.327000818876593 -1.017268166934170 -0.055999473179950
0.328999293757106 -1.022260304977673 -0.093953890681976
nan nan nan
0.955915540218649 -2.964878335108418 -0.493394302736888
nan nan nan
nan nan nan
nan nan nan
2.818445455381761 -8.884865814799689 2.497603785239325
2.708459449258917 -8.532978454300746 2.066850287311432
2.649576663925190 -8.337375009858075 1.700489766795767
2.469859930299717 -7.767166814836747 1.290897205511985
0.347477068742188 -1.091419652748208 0.140637222289540
0.336429849541187 -1.055445884642154 0.096917185935396
0.330941869658414 -1.036977922065131 0.057046192304809
0.332743377687526 -1.041994867803200 0.019092932642388
0.328928336126455 -1.036913495554247 -0.018988218203764
0.326470775661553 -1.027921204187228 -0.056522832742379
0.330259049063611 -1.038592146346996 -0.095348382565938
nan nan nan
0.946759548486098 -2.971961398948326 -0.494020040597049
nan nan nan
nan nan nan
nan nan nan
2.784707101911129 -8.891449152761380 2.496568509058915
2.679240372418444 -8.544240220969129 2.067300189420119
2.617517282023354 -8.337207420078123 1.698581676842002
2.452974940952145 -7.803581477146794 1.295590239463192
2.131081518817676 -6.775416913032465 0.872097021407235
0.330349767330794 -1.049012275606036 0.096219939993415
0.330740462237598 -1.049613467210795 0.057674223779724
0.332714026748628 -1.054592241221449 0.019302361519636
0.324708838127959 -1.036147162498213 -0.018953313390890
0.325870307936359 -1.038582820168418 -0.057046192304809
0.320660345277090 -1.020730619127070 -0.093605267710985
1.032209274610896 -3.283738876177073 -0.422642882929051
0.932228554277913 -2.962058273383149 -0.491829958086486
nan nan nan
nan nan nan
nan nan nan
2.755366012904869 -8.906652092073138 2.498121423329530
2.647092753175495 -8.546094506032267 2.065500580985368
2.580839133986808 -8.321916514975049 1.693620642962212
2.433724141567553 -7.842705686003393 1.300596142344479
2.108006910172695 -6.784710197565015 0.872340760094046
0.329645131029329 -1.059671330515847 0.097091497420891
0.329633738684280 -1.058332089640416 0.058092911429668
0.327840801082695 -1.051928951067089 0.019232551893886
0.319907379282340 -1.033453763826063 -0.018883503765141
0.323425535121904 -1.043529456610402 -0.057255536129781
0.320638342029615 -1.033260962175719 -0.094651136623957
1.016031299098713 -3.272155531351553 -0.420692973434569
0.920710482323267 -2.961521673358462 -0.491204220226325
nan nan nan
nan nan nan
nan nan nan
2.731892518506252 -8.930043085452644 2.502262528051171
2.618519190247533 -8.548778533623890 2.064150874659305
2.557560560327124 -8.339368219242724 1.695528732915977
2.420301166534166 -7.881994195649900 1.305914914155847
2.091929060629355 -6.808377073432176 0.874534408275338
0.328657825410228 -1.068318957740679 0.097788743362872
0.328659033261650 -1.066997484827712 0.058511599079611
0.322767481163966 -1.047220740310921 0.019127837455263
0.323097655427293 -1.055486935101254 -0.019267456706761
0.321316150639995 -1.048359537043319 -0.057464879954752
0.320313246150211 -1.043786778639139 -0.095522694051433
0.998754078364325 -3.252559622496114 -0.417768109192846
0.907338483313798 -2.951182483312736 -0.489014137715762
nan nan nan
nan nan nan
nan nan nan
2.716347508507555 -8.991305214671618 2.516756394576912
2.593176228187558 -8.572788963257265 2.067750091528807
2.532418731343224 -8.361397725814722 1.698200058851249
2.389333587324342 -7.879052397589568 1.304037700575365
2.068727052463941 -6.817537354206525 0.874778146962149
0.328981037808346 -1.082804095752397 0.099008923761340
0.324351240054142 -1.066227416611595 0.058406927167125
0.323186255233783 -1.061732246573061 0.019372171145385
0.324040500042658 -1.071921490146774 -0.019546695209758
0.316497523219692 -1.045651529611224 -0.057255536129781
0.317823520790035 -1.048712019672232 -0.095871317022424
0.985090137348481 -3.248427448428860 -0.416793154445604
0.897031406185298 -2.954331706059991 -0.489014137715762
nan nan nan
nan nan nan
nan nan nan
2.689831653042299 -9.011370376074543 2.519862223118142
2.571601463870652 -8.609797057627386 2.074498623159123
2.509404304549854 -8.390876925187335 1.702397856749533
2.366349241378797 -7.902483583814369 1.306540652016008
2.051754083691238 -6.847535805249942 0.877703011203872
1.764549950206712 -5.881551287804244 0.537227998296565
0.320627435754646 -1.067353117904424 0.058406927167125
0.321780694322193 -1.070514117047055 0.019511790396883
0.315149194120284 -1.055800688763265 -0.019232551893886
0.316277168700718 -1.058231659496166 -0.057883567604696
0.318730509443368 -1.065085078652292 -0.097265808906387
0.968050592720846 -3.232829619359499 -0.414355767577501
0.891251919288655 -2.972582205327803 -0.491517089156405
nan nan nan
nan nan nan
nan nan nan
2.652964905657606 -9.008196474861290 2.516238756486707
2.553658152208460 -8.659842804542453 2.084396469550253
2.480099389986217 -8.399585260780713 1.702397856749533
2.339310054764112 -7.912589863152921 1.306853520946089
2.036286206865948 -6.883209181446337 0.881359091506027
1.742877016315803 -5.883854199616791 0.536879375325574
0.321443089939862 -1.083784320127908 0.059244302467012
0.322593526453897 -1.086967217474898 0.019791028899880
0.315418707460902 -1.070321302185302 -0.019476885584008
0.318799035680930 -1.080400873984764 -0.059034958642041
1.053987503772958 -3.567345714318867 -0.325439543419756
0.962388013820185 -3.255225457209150 -0.416793154445604
0.892084375392336 -3.013557705840240 -0.497774467758015
nan nan nan
nan nan nan
nan nan nan
2.619840360971579 -9.005814753230299 2.513132927945477
2.523414101907817 -8.668703976259613 2.084396469550253
2.455159260464427 -8.423269826630920 1.705450800675558
2.312229139547628 -7.922603639928287 1.307166389876169
2.032836833155099 -6.960778581058719 0.890377422918007
1.715617545627143 -5.866954458653472 0.534787637499631
0.320834054946001 -1.096456480128260 0.059872333941928
0.318797337447759 -1.088086656848297 0.019791028899880
0.311680667253980 -1.071415798179242 -0.019476885584008
1.127166747247521 -3.869647773372515 -0.211227919396521
1.043760170942880 -3.578653867053659 -0.326136789361737
0.951019293273987 -3.258564986344131 -0.416793154445604
0.874356470847530 -2.992004343334357 -0.493707171666969
nan nan nan
nan nan nan
nan nan nan
2.587347617450578 -9.017213379883017 2.513650566035681
