# This PCD file was generated using the MATLABÂ® pcwrite function
# from Computer Vision ToolboxÂ®.
# .PCD v.7 - Point Cloud Data file format
VERSION .7
FIELDS x y z
SIZE 8 8 8
TYPE F F F
COUNT 1 1 1
WIDTH 1012
HEIGHT 1
VIEWPOINT 0 0 0 1 0 0 0
POINTS 1012
DATA ascii
nan nan nan
nan nan nan
nan nan nan
nan nan nan
nan nan nan
nan nan nan
nan nan nan
0.527955276855971 -0.838703347207479 0.265548340275186
0.557795418490403 -0.885421341388158 0.241597432365311
0.540273353754746 -0.856944124191110 0.196914883228594
0.539693911799980 -0.855363081025472 0.160188892201196
0.537200502738058 -0.851082083083068 0.123575514212820
0.532025015671726 -0.842231119827333 0.087155742747658
0.526149357533250 -0.832285983218554 0.051603252855543
0.534418460352044 -0.845039835004539 0.017452406437284
0.522139214104183 -0.829143001073540 -0.017103358308538
nan nan nan
nan nan nan
nan nan nan
nan nan nan
nan nan nan
nan nan nan
nan nan nan
0.533360936704134 -0.853555923449303 0.269689444996827
0.547470579449284 -0.875795900794436 0.238448117604497
0.542484958626851 -0.867146755168092 0.198822973182360
0.537753101109753 -0.858916053477057 0.160501761131277
0.537387502003939 -0.857999131409082 0.124306730273250
0.538605312247468 -0.859276598386759 0.088724546117116
0.521118250541184 -0.830733672766100 0.051393909030571
0.529339603135938 -0.843512554666482 0.017382596811534
0.529838554962541 -0.847918934323768 -0.017452406437284
nan nan nan
nan nan nan
nan nan nan
nan nan nan
nan nan nan
nan nan nan
nan nan nan
0.532264343069476 -0.858789144342386 0.270724721177237
0.549546090642974 -0.885981797816966 0.240697628147936
0.539454746574706 -0.869035098101882 0.198822973182360
0.532666846648075 -0.857432030930155 0.159876023271116
0.540676184551570 -0.869985851177730 0.125769162394112
0.529289009214336 -0.851000349170691 0.087678677204144
0.524547843580158 -0.842721352228274 0.052021940505486
0.527448981913026 -0.847052656046881 0.017417501624409
0.518445528975429 -0.836167038209763 -0.017173167934287
nan nan nan
nan nan nan
nan nan nan
nan nan nan
nan nan nan
nan nan nan
nan nan nan
0.529413569070622 -0.860549474595978 0.270724721177237
0.547471491039239 -0.889554290164689 0.241147530256623
0.537447554452908 -0.872584469875635 0.199204591173113
0.535889829453483 -0.869375627134984 0.161753236851599
0.539719933973524 -0.875247195817374 0.126256639767733
0.524222534303617 -0.849451703250943 0.087330054233153
0.525652417823050 -0.851436149194668 0.052440628155430
0.522386842628223 -0.845486276784689 0.017347691998660
0.526001724780132 -0.855003600853568 -0.017522216063033
nan nan nan
nan nan nan
nan nan nan
nan nan nan
nan nan nan
nan nan nan
nan nan nan
0.540343098741832 -0.885571620463249 0.277971654440107
0.550456647740329 -0.901438931593559 0.243846942908750
0.533374640215146 -0.872779994334362 0.198822973182360
0.529608707615720 -0.866277825859485 0.160814630061357
0.528373255030196 -0.863579492680071 0.124306730273250
0.522294628316874 -0.852975560735192 0.087504365718649
0.525806951854325 -0.858375207545860 0.052754643892887
0.516296955587323 -0.842190081499495 0.017242977560036
0.519888418990980 -0.851713955759927 -0.017417501624409
nan nan nan
nan nan nan
nan nan nan
nan nan nan
nan nan nan
nan nan nan
nan nan nan
0.545409477104987 -0.900578088453306 0.282112759161748
0.541247939496377 -0.893354653338783 0.241147530256623
0.528289024137814 -0.871278972244507 0.198059737200854
0.531856977840611 -0.876473173402249 0.162378974711760
0.522265254074046 -0.860327900671604 0.123575514212820
0.520348496022768 -0.856496288521191 0.087678677204144
0.514508928717085 -0.846551333052072 0.051917268593000
0.516471552652769 -0.849112591405143 0.017347691998660
0.520019903795884 -0.858654919976797 -0.017522216063033
0.517615209099260 -0.854011383409651 -0.052335956242944
nan nan nan
nan nan nan
0.496275221322071 -0.817192936376841 -0.151428562158943
0.532260101611569 -0.875758365696837 -0.199204591173113
nan nan nan
nan nan nan
0.549067846893175 -0.914163720991793 0.285736225793183
0.533106417900231 -0.886887413018532 0.238898019713185
0.529292601413431 -0.879846968057855 0.199586209163866
0.522529514380996 -0.868261533913901 0.160501761131277
0.525404043989244 -0.872348612961816 0.125037946333681
0.518384135852090 -0.860013802258534 0.087852988689639
0.509488073791651 -0.844921412428551 0.051707924768029
0.512471241913437 -0.849198147437663 0.017312787185785
0.511869874323903 -0.851894529470610 -0.017347691998660
0.491987235585247 -0.818157222973578 -0.050033174168254
0.512646864545600 -0.851840021886241 -0.086981431262163
nan nan nan
0.484244503156541 -0.803692425086154 -0.148612741788219
0.488648175881485 -0.810361082397499 -0.183939871542989
nan nan nan
nan nan nan
0.543224770678444 -0.910906523180848 0.284183311522568
0.530162462054660 -0.888650381199074 0.238898019713185
0.528384908383428 -0.884968636971152 0.200349445145372
0.518785962401090 -0.868203112198366 0.160188892201196
0.520471273329397 -0.870678375934940 0.124550468960061
0.511437874066793 -0.854888985468958 0.087155742747658
0.506683412080690 -0.846606290100926 0.051707924768029
0.511707431561591 -0.854323913871505 0.017382596811534
0.503920928183447 -0.844999870083915 -0.017173167934287
0.500530807569777 -0.838649540009569 -0.051184565205599
0.517992697320865 -0.867219269694997 -0.088375923146125
nan nan nan
0.480562854806987 -0.803598463344734 -0.148299872858139
0.479908962305630 -0.801869444462989 -0.181650163598471
nan nan nan
nan nan nan
0.536932305135446 -0.907902945391819 0.282630397251953
0.530034988064793 -0.895526628057550 0.240247726039248
0.523291457695698 -0.883429338099154 0.199586209163866
0.518621450161267 -0.875196960975864 0.161127498991438
0.525529515370902 -0.886149187622988 0.126500378454543
0.506416836210198 -0.853242352417490 0.086807119776668
0.503725117747274 -0.848369787455140 0.051707924768029
0.509743697541787 -0.857823987455230 0.017417501624409
0.504022942633141 -0.851916866883229 -0.017277882372911
0.500653087690922 -0.845547385985196 -0.051498580943057
0.520040905832037 -0.877592356092884 -0.089247480573602
nan nan nan
nan nan nan
0.483120945503328 -0.813668406460961 -0.183939871542989
nan nan nan
nan nan nan
0.533918638237121 -0.909678485121102 0.282630397251953
0.530852647451012 -0.904093222277595 0.242047334473999
0.513241941281034 -0.873402105832786 0.196914883228594
0.518720513754543 -0.882020184557578 0.162066105781679
0.509347083485906 -0.865735999996537 0.123331775526009
0.499391721655311 -0.848137369752282 0.086109873834686
0.502788056879358 -0.853564741001713 0.051917268593000
0.502684133484960 -0.852707532934465 0.017277882372911
0.501046127135854 -0.853671045112150 -0.017277882372911
0.499721691102762 -0.850734107672649 -0.051707924768029
0.503848066238243 -0.857073717228319 -0.086981431262163
0.503158079340261 -0.855558186409678 -0.121869343405147
nan nan nan
0.478284915575764 -0.811966661702966 -0.183176635561483
nan nan nan
nan nan nan
0.532524433517208 -0.914968586030877 0.283665673432363
0.519846794954400 -0.892469498070668 0.238448117604497
0.517111255287875 -0.887061043427224 0.199586209163866
0.510508547192110 -0.875383463356237 0.160501761131277
0.505321361416332 -0.865794234725213 0.123088036839199
0.502457618704469 -0.860197778369567 0.087155742747658
0.494767134888881 -0.846692475665401 0.051393909030571
0.500714070378736 -0.856183208854634 0.017312787185785
0.500075583141748 -0.858871043130318 -0.017347691998660
0.492726771054735 -0.845570661294383 -0.051289237118085
0.487804969950204 -0.836452996499399 -0.084715381950724
0.480161816193464 -0.823016950577431 -0.116994569668942
0.466145175418777 -0.798351476659157 -0.146422659277656
0.479409773366293 -0.820411501181982 -0.184703107524495
nan nan nan
nan nan nan
0.537054759416722 -0.930206129756442 0.287806778154003
0.515597574410694 -0.892681348904871 0.237998215495809
0.512874023411164 -0.887250678763109 0.199204591173113
0.502503874200485 -0.868610818523398 0.158937416480875
0.502144672766748 -0.867640514728910 0.123088036839199
0.500300064250692 -0.863757667021479 0.087330054233153
0.493663219120935 -0.851956413428459 0.051603252855543
0.501585321417554 -0.864932123838626 0.017452406437284
0.495924456797570 -0.858966355889388 -0.017312787185785
0.489624290102628 -0.847370915654616 -0.051289237118085
0.485733339022357 -0.839960036734187 -0.084889693436219
0.465213531041870 -0.804152020975700 -0.114069705427218
0.468164828221018 -0.808602213876008 -0.147987003928058
0.471478111376147 -0.813669694682368 -0.182795017570730
nan nan nan
nan nan nan
0.528043982344662 -0.922016768827539 0.284700949612773
0.515384698490667 -0.899548322704921 0.239347921821872
0.513680128735671 -0.895848070620429 0.200731063136125
0.494552763743224 -0.861793061086349 0.157373071830472
0.499112982938919 -0.869388040778619 0.123088036839199
0.489341309558974 -0.851678438075567 0.085935562349191
0.491681635650182 -0.855406020367256 0.051707924768029
0.504545846114530 -0.877077846454860 0.017661835314531
0.490935490252310 -0.857221689025417 -0.017242977560036
0.491629384032010 -0.857738890095074 -0.051812596680514
0.484781116932205 -0.845106915178209 -0.085238316407210
0.471296060919683 -0.821266616616853 -0.116263353608511
0.468290840398107 -0.815370376743855 -0.148925610718300
0.462764834662986 -0.805097845603927 -0.180505309626211
nan nan nan
nan nan nan
0.522120014494811 -0.918724050270708 0.283148035342158
0.513362010738085 -0.902946537492181 0.239797823930560
0.508764715033635 -0.894133845036527 0.199967827154619
0.495450410569084 -0.870381033560148 0.158624547550794
0.499175128628215 -0.876212864303180 0.123819252899630
0.488488040570052 -0.856758118481327 0.086284185320182
0.494779659546776 -0.867441085136572 0.052335956242944
0.491720850181481 -0.861379633435027 0.017312787185785
0.487102104639253 -0.857106423898654 -0.017208072747162
0.486807438181182 -0.855892296043259 -0.051603252855543
0.477047796206317 -0.838052295572270 -0.084366758979733
0.473481687089242 -0.831449974811362 -0.117482047042562
0.461671926019906 -0.810053938066885 -0.147674134997978
0.463983335136465 -0.813449380851136 -0.182031781589224
nan nan nan
nan nan nan
0.519697568767665 -0.922314600737266 0.283665673432363
0.514035957229758 -0.911522745382349 0.241597432365311
0.499850729108273 -0.885645871551088 0.197678119210100
0.498236523084428 -0.882425946886479 0.160501761131277
0.491230526585175 -0.869308732597101 0.122600559465578
0.487456014213527 -0.861926557622311 0.086632808291172
0.489781715885403 -0.865686252092626 0.052126612417972
0.490681687600445 -0.866571016582984 0.017382596811534
0.485089239317871 -0.860543496647829 -0.017242977560036
0.482835477806845 -0.855846830648970 -0.051498580943057
0.477058298924563 -0.844917226345579 -0.084889693436219
0.476434299206244 -0.843468179255386 -0.118944479163424
0.458841497431224 -0.811660538703017 -0.147674134997978
0.456307276635050 -0.806520381020541 -0.180123691635458
nan nan nan
nan nan nan
0.519464506257483 -0.929091483099156 0.285218587702978
0.504191879356386 -0.901406148194002 0.238448117604497
0.497715191640216 -0.889098379545521 0.198059737200854
0.498048879295861 -0.889330265670466 0.161440367921518
0.485281391732602 -0.865823211733242 0.121869343405147
0.493216993579649 -0.879261890988527 0.088201611660630
0.480892381785291 -0.856940145693806 0.051498580943057
0.484716127355139 -0.863047942273513 0.017277882372911
0.483058301971306 -0.863976939320319 -0.017277882372911
0.475943893799887 -0.850555262434938 -0.051079893293113
0.471185509669336 -0.841362267668870 -0.084366758979733
0.465725058896891 -0.831271580281358 -0.116994569668942
nan nan nan
0.453489215145552 -0.808108277063344 -0.180123691635458
nan nan nan
nan nan nan
0.521839457894531 -0.941035924490547 0.288324416244208
0.500096950145317 -0.901456537985145 0.237998215495809
0.500326645679882 -0.901128929428336 0.200349445145372
0.491104747223504 -0.884155894664449 0.160188892201196
0.484185172805777 -0.870981932558852 0.122356820778768
0.481426801597823 -0.865308610399132 0.086632808291172
0.477898172692007 -0.858613552594234 0.051498580943057
0.488512502097600 -0.876963230266003 0.017522216063033
0.475190632681905 -0.856913844996065 -0.017103358308538
0.474910412101582 -0.855704104602374 -0.051289237118085
0.473082986001229 -0.851710583339332 -0.085238316407210
0.465713170611201 -0.838097775974655 -0.117725785729372
0.456044181333326 -0.820023144582032 -0.148612741788219
0.445891627736119 -0.801109140899083 -0.178215601681693
nan nan nan
nan nan nan
0.512802823928393 -0.932784873912407 0.285218587702978
0.496789587711489 -0.903283430027508 0.237998215495809
0.503647422214602 -0.914996087754700 0.203020771080644
0.485156009545214 -0.880674169598889 0.159250285410955
0.488654785364576 -0.886659087557937 0.124306730273250
0.480176608892171 -0.870556520214742 0.086981431262163
0.475863380683395 -0.862025027026071 0.051603252855543
0.484328266847279 -0.876997334019865 0.017487311250158
0.471083334068682 -0.856897403577582 -0.017068453495663
0.476584898768558 -0.866188368134199 -0.051812596680514
0.467074954322968 -0.848202977538478 -0.084715381950724
0.466469633356702 -0.846753928462317 -0.118700740476614
0.453989342223042 -0.823418993963627 -0.148925610718300
0.442952420985236 -0.802738034517208 -0.178215601681693
nan nan nan
nan nan nan
0.509380552060422 -0.934658124883820 0.285218587702978
0.499232381344099 -0.915276833106497 0.240697628147936
0.496687636309948 -0.909855724475003 0.201494299117631
0.483818533266350 -0.885913812992557 0.159876023271116
0.482700574098810 -0.883133765661644 0.123575514212820
0.472353963580077 -0.863487592683511 0.086109873834686
0.475577179610872 -0.869019529961905 0.051917268593000
0.474539776325917 -0.866405609636395 0.017242977560036
0.472875523441822 -0.867315063315798 -0.017242977560036
0.471645066188711 -0.864340231526089 -0.051603252855543
0.464111327818567 -0.849828205845999 -0.084715381950724
0.463511068665332 -0.848377052633453 -0.118700740476614
nan nan nan
0.439205143403531 -0.802557110897720 -0.177833983690940
nan nan nan
nan nan nan
0.506278313278518 -0.936342152598385 0.285218587702978
0.503451764710082 -0.930726260575487 0.244296845017437
0.489769919471254 -0.904678005748002 0.199967827154619
0.480723169373189 -0.887597257550298 0.159876023271116
0.473939004965656 -0.874342161144118 0.122113082091958
0.474087325655219 -0.873887543262099 0.086981431262163
0.478410850085171 -0.881123175249384 0.052545300067916
0.471512565299772 -0.868056784138741 0.017242977560036
0.470796251507502 -0.870719452147012 -0.017277882372911
0.462921734455388 -0.855441987848393 -0.050975221380627
0.462090898211147 -0.853195019757336 -0.084889693436219
0.465275263386098 -0.858716634665675 -0.119919433910665
nan nan nan
0.445765849266650 -0.821340383575672 -0.181650163598471
nan nan nan
nan nan nan
0.507571274677875 -0.946616426843782 0.287806778154003
0.491909251213453 -0.917022529005472 0.240247726039248
0.488466306400338 -0.909841583905601 0.200731063136125
0.480425990767588 -0.894490649561643 0.160814630061357
0.470884093864864 -0.875991190210877 0.122113082091958
0.471977956476312 -0.877291676186745 0.087155742747658
0.470597856707551 -0.873995065757412 0.052021940505486
0.468479609041820 -0.869697381643113 0.017242977560036
0.468698962753923 -0.874119871478309 -0.017312787185785
0.456155181727828 -0.850013227591189 -0.050556533730684
0.462880799603108 -0.861823787770249 -0.085586939378200
0.456637448963975 -0.849843620280016 -0.118457001789803
nan nan nan
0.444757028605722 -0.826348919742433 -0.182413399579977
nan nan nan
nan nan nan
0.507151132002313 -0.953411085371207 0.289359692424618
0.488110138367965 -0.916843223490567 0.239797823930560
0.492991184709573 -0.925232819491584 0.203784007062150
0.470333765808645 -0.881968004608189 0.158311678620714
0.469998548691738 -0.880969049993464 0.122600559465578
0.472973295119467 -0.885800267826857 0.087852988689639
0.463932836176821 -0.868504132293945 0.051603252855543
0.469516281894461 -0.878218826013248 0.017382596811534
0.463132276621958 -0.870292121407112 -0.017208072747162
0.459115863250924 -0.862019004660612 -0.051184565205599
0.454547749426185 -0.852724545733371 -0.084541070465228
0.453031252411395 -0.849522400390422 -0.118213263102993
0.440877706277152 -0.826037526882440 -0.148299872858139
0.439383731249596 -0.822547050986413 -0.181268545607718
nan nan nan
nan nan nan
0.496609712158860 -0.941505789158098 0.285218587702978
0.489455628670981 -0.927158171746508 0.242047334473999
0.487924214429792 -0.923476327516245 0.203020771080644
0.468944269615899 -0.887178769829845 0.158937416480875
0.473418429450681 -0.894887047322300 0.124306730273250
0.465216901645348 -0.878641829779967 0.086981431262163
0.461050221826783 -0.870037813688693 0.051603252855543
0.466447865652700 -0.879852393277491 0.017382596811534
0.457291822782621 -0.866597752103430 -0.017103358308538
0.457969514572575 -0.867148539661296 -0.051393909030571
0.448775209326333 -0.849021651264397 -0.084018136008742
0.455630896820632 -0.861627653824501 -0.119675695223855
0.441687742977449 -0.834555170040813 -0.149551348578461
0.438347765469492 -0.827545567929257 -0.182031781589224
nan nan nan
nan nan nan
0.491529582126722 -0.939809829351874 0.284183311522568
0.490734999238309 -0.937493579731138 0.244296845017437
0.478320106459476 -0.913000534275056 0.200349445145372
0.465999700381591 -0.888728967057253 0.158937416480875
0.469369665688370 -0.894776224008110 0.124062991586440
0.457516303224175 -0.871440142472367 0.086109873834686
0.459868468644170 -0.875177951260250 0.051812596680514
0.459651888253219 -0.874395117409809 0.017242977560036
0.456118185098352 -0.871732346265576 -0.017173167934287
0.456792926508915 -0.872280532045825 -0.051603252855543
0.448583580401941 -0.855877081594296 -0.084541070465228
0.457229649021071 -0.872003208048628 -0.120894388657906
0.437853978011236 -0.834342717432097 -0.149238479648380
0.434543515252396 -0.827332551889952 -0.181650163598471
nan nan nan
nan nan nan
0.490024713144331 -0.944949806993226 0.285218587702978
0.482073252893489 -0.928822943040911 0.241597432365311
0.470605175993466 -0.905953529094002 0.198441355191607
0.463805828203931 -0.892102852994314 0.159250285410955
0.462579458524019 -0.889364705696542 0.123088036839199
0.456311588193109 -0.876566405248790 0.086458496805677
0.456810725813948 -0.876777859897566 0.051812596680514
0.454748308980857 -0.872447739284223 0.017173167934287
0.452151613472250 -0.871544145968305 -0.017138263121412
0.450984188611056 -0.868552057034391 -0.051289237118085
0.446512027959859 -0.859205629024925 -0.084715381950724
0.453267312648622 -0.871832646753864 -0.120650649971096
0.430379802787205 -0.827104331511718 -0.147674134997978
0.429839270513407 -0.825361812141680 -0.180886927616964
nan nan nan
nan nan nan
0.490090189107000 -0.953612372267930 0.287289140063798
0.479394351434415 -0.932400205752234 0.242047334473999
0.470716358178778 -0.914736562211202 0.199967827154619
0.465803829246376 -0.904414021191720 0.161127498991438
0.454614991666218 -0.882311210679272 0.121869343405147
0.455682030608507 -0.883624421117985 0.086981431262163
0.451608697333123 -0.874975821830413 0.051603252855543
0.455064884195530 -0.881294626428625 0.017312787185785
0.452458025742095 -0.880388101760964 -0.017277882372911
0.443078056766510 -0.861396924354863 -0.050765877555656
0.445945493644364 -0.866228056642331 -0.085238316407210
0.441736084599465 -0.857683607334141 -0.118457001789803
0.432631303758165 -0.839285737485676 -0.149551348578461
0.427567089029495 -0.828750926848415 -0.181268545607718
nan nan nan
nan nan nan
0.486591733197854 -0.955402237376966 0.287289140063798
0.472596696540854 -0.927123180894342 0.240247726039248
0.469304893189874 -0.919871707098486 0.200731063136125
0.461745659468138 -0.904275179754793 0.160814630061357
0.457853834455568 -0.896267236130704 0.123575514212820
0.457129847934217 -0.894079501222312 0.087852988689639
0.446732027992554 -0.872990928521149 0.051393909030571
0.451985819449556 -0.882877730162208 0.017312787185785
0.446658613110884 -0.876616886465782 -0.017173167934287
0.443697952091245 -0.870055324444802 -0.051184565205599
0.441107546634341 -0.864230219473109 -0.084889693436219
0.439642275106033 -0.860988271784172 -0.118700740476614
0.435092725546598 -0.851344648622934 -0.151428562158943
0.424671603548799 -0.830238365478586 -0.181268545607718
nan nan nan
nan nan nan
0.476781816987094 -0.943049462686004 0.283148035342158
0.472320387169423 -0.933820182122134 0.241597432365311
0.473506449400355 -0.935354329033635 0.203784007062150
0.452652876026866 -0.893386605417225 0.158624547550794
0.458625899718562 -0.904783656345078 0.124550468960061
0.449811632531780 -0.886627162822503 0.086981431262163
0.445642509830355 -0.878029531238460 0.051603252855543
0.451021281811175 -0.887859025229508 0.017382596811534
0.443000199568041 -0.876231192733891 -0.017138263121412
0.442765934841614 -0.875009138842783 -0.051393909030571
0.434789573208117 -0.858501985329349 -0.084192447494238
0.437832433189018 -0.864135968076972 -0.118944479163424
0.438669955239570 -0.865039873289097 -0.153618644669507
0.421172691438936 -0.829817741075339 -0.180886927616964
nan nan nan
nan nan nan
0.472456859862552 -0.943063398779754 0.282630397251953
0.469057868891702 -0.935463198797934 0.241597432365311
0.463193796159487 -0.922964001189432 0.200731063136125
0.455579804268726 -0.907397209991688 0.160814630061357
0.453682180083035 -0.902831575430172 0.124062991586440
0.444028330539664 -0.882852065755221 0.086458496805677
0.446165771195810 -0.886716314454229 0.052021940505486
0.443422145667504 -0.880497974423539 0.017208072747162
0.439938883006247 -0.877772213707177 -0.017138263121412
0.439708885471185 -0.876549349524741 -0.051393909030571
0.433578144261543 -0.863575590335502 -0.084541070465228
0.439268423327411 -0.874528481079238 -0.120163172597475
0.433873197548852 -0.863036047285837 -0.152992906809346
0.415626220272442 -0.826021568715942 -0.179742073644705
nan nan nan
nan nan nan
0.472765243889796 -0.951545266111606 0.284700949612773
0.471861381003315 -0.949310205827803 0.244746747126125
0.459969228627418 -0.924575226256976 0.200731063136125
0.453448744752602 -0.910671271618389 0.161127498991438
0.450527945779455 -0.904409721415226 0.124062991586440
0.447166895094444 -0.896878039365067 0.087678677204144
0.444850804600011 -0.891842841863920 0.052231284330458
0.438559539451472 -0.878462184896592 0.017138263121412
0.439541486208618 -0.884675059909786 -0.017242977560036
0.432199976570185 -0.869137139610051 -0.050870549468141
0.433224325695867 -0.870434833110463 -0.085064004921714
0.434443446002429 -0.872502504407994 -0.119675695223855
0.427333595457730 -0.857473344357843 -0.151741431089024
0.415369254107225 -0.832737835191666 -0.180886927616964
nan nan nan
nan nan nan
0.470980933328749 -0.956738088355558 0.285736225793183
0.459070543874330 -0.931722726665554 0.239797823930560
0.457607381717958 -0.927935974993530 0.201112681126878
0.452729909853536 -0.917641654503963 0.162066105781679
0.447368221935034 -0.905976847453238 0.124062991586440
0.442267941518596 -0.894861178916897 0.087330054233153
0.436423539269968 -0.882648060478128 0.051603252855543
0.439038246134899 -0.887156633978183 0.017277882372911
0.439984730017303 -0.893379696814120 -0.017382596811534
0.430046541119452 -0.872431945355276 -0.050975221380627
0.431946348081664 -0.875515297053898 -0.085412627892705
0.431395197122488 -0.874013679453781 -0.119675695223855
0.430462315287622 -0.871357150793037 -0.153931513599587
0.418551106374918 -0.846501824513796 -0.183558253552236
nan nan nan
nan nan nan
0.471027109027218 -0.965321045564673 0.287806778154003
0.455652525879961 -0.933399046119814 0.239797823930560
0.455926984199325 -0.933134877266174 0.201875917108384
0.443449336088466 -0.906794543160529 0.159876023271116
0.447534191258393 -0.914742947297956 0.125037946333681
0.445994883476278 -0.910791149951125 0.088724546117116
0.434942886028391 -0.887828891576815 0.051812596680514
0.438424818956040 -0.894146253949236 0.017382596811534
0.429691994939176 -0.880609030512271 -0.017103358308538
0.428598990758031 -0.877591616531238 -0.051184565205599
0.432234396458834 -0.884252518314787 -0.086109873834686
0.425572653918265 -0.870239120652196 -0.118944479163424
0.425528887742101 -0.869380529355186 -0.153305775739426
0.415445710762595 -0.848030205217842 -0.183558253552236
nan nan nan
nan nan nan
0.462441055216707 -0.956605268509245 0.284700949612773
0.454937873254260 -0.940246457121760 0.241147530256623
0.456945473626854 -0.943555463445379 0.203784007062150
0.440122789378693 -0.908413775463876 0.159876023271116
0.444338415963398 -0.916299560228964 0.125037946333681
0.437593113337634 -0.901587886300170 0.087678677204144
0.432713541364023 -0.891138366552606 0.051917268593000
0.440545585336874 -0.906462413932512 0.017592025688782
0.424003546452229 -0.876702936405779 -0.016998643869914
0.425533013168076 -0.879082359616442 -0.051184565205599
0.422195426873622 -0.871411685478192 -0.084715381950724
0.423398204765455 -0.873505654776816 -0.119188217850234
0.425940501845452 -0.877969671975549 -0.154557251459748
0.405622577741314 -0.835346728983383 -0.180505309626211
nan nan nan
nan nan nan
0.460936354428294 -0.961617640455821 0.285736225793183
0.453338301487075 -0.945343044761448 0.242047334473999
0.448551886021864 -0.934525148387845 0.201494299117631
0.442240343899728 -0.920551665359137 0.161753236851599
0.442857059786920 -0.921423351451431 0.125525423707302
0.432715909518942 -0.899518984389340 0.087330054233153
0.432198640343986 -0.898042442327756 0.052231284330458
0.431304052115002 -0.895383645266932 0.017347691998660
0.425262472021480 -0.887193841386019 -0.017173167934287
0.424189710922267 -0.884163873533770 -0.051393909030571
0.419151060281446 -0.872880113604316 -0.084715381950724
0.421206125867152 -0.876767590236842 -0.119431956537045
nan nan nan
0.419731864139241 -0.872138394730678 -0.188137669441273
nan nan nan
nan nan nan
0.457408753565157 -0.963300597649268 0.285736225793183
0.451708671638078 -0.950439879092117 0.242947138691374
0.441913665002748 -0.928993638722516 0.199967827154619
0.444805440346248 -0.934652185721992 0.163943319362162
0.436223329993140 -0.915794948146977 0.124550468960061
0.432145661654750 -0.906419317695335 0.087852988689639
0.437659676045971 -0.917572592393185 0.053278003455317
0.428175952274601 -0.896883722383263 0.017347691998660
0.428169380838904 -0.901316599175447 -0.017417501624409
0.417670262168824 -0.878424202139844 -0.050975221380627
0.416957762569714 -0.876136955150941 -0.084889693436219
0.420703129316053 -0.883609466300011 -0.120163172597475
nan nan nan
0.417530178658057 -0.875370223491691 -0.188519287432026
nan nan nan
nan nan nan
0.456195489087653 -0.968148636001666 0.286771501973593
0.445396696572160 -0.944803498794187 0.241147530256623
0.437317423773187 -0.926826306122099 0.199204591173113
0.441186748338029 -0.934181635862273 0.163630450432081
0.433344127370332 -0.917160862638324 0.124550468960061
0.430999488809448 -0.911374739800518 0.088201611660630
0.426233135507610 -0.900889120331988 0.052231284330458
0.425356200634179 -0.898224448656557 0.017347691998660
0.423630950644178 -0.899039418067211 -0.017347691998660
0.414908554569653 -0.879732014962578 -0.050975221380627
0.417605324106558 -0.884649461134595 -0.085586939378200
0.411143370472231 -0.870566914914228 -0.118213263102993
nan nan nan
0.417296961229480 -0.882001564405652 -0.189664141404286
nan nan nan
nan nan nan
0.456082650060063 -0.976736855023945 0.288842054334413
0.440446391439932 -0.942821301414278 0.240247726039248
0.439068951835882 -0.939017839530663 0.201494299117631
0.434573841331881 -0.928559446132347 0.162378974711760
0.434348804673291 -0.927656851249193 0.125769162394112
0.428661056806932 -0.914677754504413 0.088375923146125
0.427325186029633 -0.911413261332352 0.052754643892887
0.429014489923048 -0.914185899452161 0.017626930501656
0.421336193135159 -0.902324585546941 -0.017382596811534
0.416909133835404 -0.892031321434029 -0.051603252855543
0.416203228248747 -0.889711162073990 -0.085935562349191
0.411467809868302 -0.879188495243123 -0.119188217850234
nan nan nan
0.407548203630449 -0.869232260499645 -0.186611197478261
nan nan nan
nan nan nan
0.449425474290338 -0.971309862358410 0.286771501973593
0.438789923413338 -0.947889904874004 0.241147530256623
0.438264563909637 -0.945888759662630 0.202639153089891
0.431167581879866 -0.930146001930572 0.162378974711760
0.431943512452806 -0.930968071853757 0.126012901080923
0.423787258677944 -0.912554411422196 0.088027300175135
0.424982706541785 -0.914710660194253 0.052859315805373
0.427507190814941 -0.919304316964943 0.017696740127405
0.419023652377627 -0.905604665063778 -0.017417501624409
0.418828841623455 -0.904355181530767 -0.052231284330458
0.408067495457828 -0.880312818888309 -0.084889693436219
0.409231528885909 -0.882420287348061 -0.119431956537045
nan nan nan
0.401202646084297 -0.863527695650755 -0.185084725515248
nan nan nan
nan nan nan
0.444252815324719 -0.969438108053076 0.285736225793183
0.438728336446273 -0.956500985154098 0.242947138691374
0.434960125914374 -0.947412825804867 0.202639153089891
0.430391654859215 -0.937030624366079 0.163317581502001
0.432007955623643 -0.939684633667086 0.126987855828164
0.422265007146402 -0.917648058869913 0.088375923146125
0.421787181341177 -0.916188553949924 0.052859315805373
0.420948115455701 -0.913526371595720 0.017557120875907
0.418360109352455 -0.912515090750198 -0.017522216063033
0.419001521330894 -0.913072672667876 -0.052649971980401
0.403328932092804 -0.878110801631247 -0.084541070465228
0.406148814082538 -0.883843395957158 -0.119431956537045
0.402817098230845 -0.875787183855797 -0.152680037879265
0.400648933385600 -0.870272931844308 -0.186229579487508
nan nan nan
nan nan nan
0.442633555129451 -0.974423748442777 0.286771501973593
0.436999395942085 -0.961574852198367 0.243846942908750
0.430837487148095 -0.947138294634704 0.202257535099137
0.427936419562740 -0.940325207842062 0.163630450432081
0.426256544938289 -0.935767395676849 0.126256639767733
0.423191979240373 -0.928180712963742 0.089247480573602
0.421902053563579 -0.924923840944026 0.053278003455317
0.417756748773874 -0.914990189215399 0.017557120875907
0.415999324897770 -0.915790537836654 -0.017557120875907
0.410025105578016 -0.901802644716447 -0.051917268593000
0.406863544346613 -0.894020769001168 -0.085935562349191
0.407996593143029 -0.896095601358869 -0.120894388657906
0.399757576358474 -0.877187942334586 -0.152680037879265
0.402497304280093 -0.882383362441393 -0.188519287432026
nan nan nan
nan nan nan
0.442400816838175 -0.983009554841046 0.288842054334413
0.430439914213598 -0.955986698718043 0.242047334473999
0.425915416737616 -0.945056667723326 0.201494299117631
0.428711230349015 -0.950817206749168 0.165194795082484
0.421354353843263 -0.933630883319532 0.125769162394112
0.421589873212955 -0.933283728045181 0.089596103544593
0.419493432619916 -0.928210940443677 0.053382675367803
0.420329520571628 -0.929196535912268 0.017801454566029
0.421006846082794 -0.935472396526480 -0.017906169004653
0.404413793026525 -0.897765330308888 -0.051603252855543
0.409472972344945 -0.908149636032025 -0.087155742747658
0.399968575712623 -0.886657287907876 -0.119431956537045
0.398318975302118 -0.882178742114773 -0.153305775739426
0.402648887002345 -0.890939101808724 -0.190045759395039
nan nan nan
nan nan nan
0.438966777887221 -0.984547833047835 0.288842054334413
0.423924808771155 -0.950364554600660 0.240247726039248
0.425015174193902 -0.951915687096257 0.202639153089891
0.427167803643942 -0.955840582097573 0.165820532942645
0.420523578977007 -0.940532601123016 0.126500378454543
0.420771148658258 -0.940205402795884 0.090119038001079
0.414780075279590 -0.925951449031586 0.053173331542831
0.418719079983430 -0.934307738367835 0.017871264191778
0.412038732551286 -0.924151579802173 -0.017661835314531
0.405347295339764 -0.908290915091946 -0.052126612417972
0.407925645658754 -0.913211724406813 -0.087504365718649
0.400110891756050 -0.895297408693422 -0.120406911284286
0.404109841298196 -0.903398865097332 -0.156747333970311
0.401141040251936 -0.895922872299278 -0.190808995376545
nan nan nan
nan nan nan
0.433794868037911 -0.982615525479108 0.287806778154003
0.422180133705016 -0.955403476734278 0.241147530256623
0.428042920695766 -0.967757210909551 0.205692097015915
0.422062880542645 -0.953786980696267 0.165194795082484
0.422865432289782 -0.954699904106338 0.128206549262215
0.418294173566145 -0.943489849123514 0.090293349486574
0.413003127674219 -0.931116913444219 0.053382675367803
0.419512365928754 -0.944901965475294 0.018045788256151
0.407194480138745 -0.921925797435294 -0.017592025688782
0.406212193423965 -0.918833844807729 -0.052649971980401
0.398285489201464 -0.900054308761269 -0.086109873834686
0.397786892861442 -0.898503760998913 -0.120650649971096
0.399353314309578 -0.901191975984015 -0.156121596110150
0.403583399308220 -0.909880104776392 -0.193480321311816
nan nan nan
nan nan nan
0.424169994246758 -0.969963711536091 0.283665673432363
0.423362236028035 -0.967656491498610 0.243846942908750
0.421342811492855 -0.962126100233257 0.204165625052903
0.419356976893928 -0.957136844491680 0.165507664012564
0.422552517516776 -0.963515183565931 0.129181504009456
0.414833300798952 -0.945016636671938 0.090293349486574
0.414570999969075 -0.943524101192434 0.054010706842718
0.419265236271979 -0.953755709082563 0.018185407507649
0.419837032337884 -0.960055382630038 -0.018290121946273
0.407647040211677 -0.931294445894785 -0.053278003455317
0.394983950042555 -0.901508052563567 -0.086109873834686
0.394491040093153 -0.899955687769000 -0.120650649971096
0.391285502850103 -0.891796123403429 -0.154244382529668
0.393930295462646 -0.896972873758556 -0.190427377385792
nan nan nan
nan nan nan
0.428460101294579 -0.989165410457985 0.288842054334413
0.421531653986807 -0.972704525772512 0.244746747126125
0.413294151365568 -0.952784371481115 0.201875917108384
0.417586220402305 -0.962219019408946 0.166133401872725
0.413650220122753 -0.952239221423636 0.127475333201784
0.413120976665645 -0.950113199291446 0.090641972457565
0.420839494487165 -0.966941417065421 0.055266769792549
0.435891872310849 -1.001048983431177 0.019058027829514
0.447481055444823 -1.033078180544347 -0.019651409648381
0.409160652635737 -0.943706363088010 -0.053906034930232
0.401352944964894 -0.924813651104088 -0.088201611660630
0.395300207195544 -0.910431551149870 -0.121869343405147
0.381083898759959 -0.876851442758911 -0.151428562158943
0.389230555729495 -0.894741911364324 -0.189664141404286
nan nan nan
nan nan nan
0.421958030946826 -0.983553519527680 0.286771501973593
0.415996909765572 -0.968725168247046 0.243397040800062
0.411682926927838 -0.957757036680567 0.202639153089891
0.416122700492914 -0.967155255090946 0.166759139732886
0.410490206681618 -0.953605699250784 0.127475333201784
0.416275216528352 -0.966116055831692 0.092036464341527
0.422205557835339 -0.979409127037430 0.055894801267464
0.456337453264802 -1.057570759239291 0.020105172215751
0.447996414753047 -1.043744290868618 -0.019825933712754
0.411547800088770 -0.957903448431600 -0.054638738317633
0.403793802561952 -0.938951707020920 -0.089421792059097
0.389925260276419 -0.906266983565981 -0.121138127344717
nan nan nan
0.383152601291761 -0.888816236046891 -0.188137669441273
nan nan nan
nan nan nan
0.423054949349388 -0.995688527143196 0.289877330514823
0.410324836779866 -0.964791488455204 0.242047334473999
0.412182206125128 -0.968220147650865 0.204547243043656
0.408704793715618 -0.959586927418007 0.165194795082484
0.411830040912732 -0.965989166644958 0.128937765322646
0.416810346836801 -0.976725772292692 0.092908021769004
0.429939248104331 -1.006517783982394 0.057360208042266
0.447142191685460 -1.046285528671683 0.019860838525629
0.445132644852484 -1.047142051289934 -0.019860838525629
0.408983581145861 -0.961171987414055 -0.054743410230119
0.403636703944272 -0.947687696563992 -0.090119038001079
0.385203046643508 -0.903970150789345 -0.120650649971096
0.382856714104228 -0.897595004713441 -0.154557251459748
0.382360382949312 -0.895564997016443 -0.189282523413532
nan nan nan
nan nan nan
0.415253471095986 -0.986402889492191 0.286771501973593
0.408636686012787 -0.969738493948838 0.242947138691374
0.410495210594878 -0.973199511549983 0.205310479025162
0.403383104247187 -0.955406707018329 0.164256188292242
0.410169334934966 -0.971006809055436 0.129425242696267
0.420552459108293 -0.994618398507550 0.094476825138461
0.435940738146805 -1.030009614323575 0.058616270992097
0.442110652100980 -1.044079731856686 0.019791028899880
0.450195948203114 -1.068884351386971 -0.020244791467249
0.418208318356619 -0.991969149513180 -0.056418160829893
0.391196090281244 -0.926993426822729 -0.088027300175135
0.386836022355815 -0.916215196877859 -0.122113082091958
nan nan nan
0.390861921988115 -0.923949840909356 -0.195006793274829
nan nan nan
nan nan nan
0.410321082000591 -0.984280152667589 0.285736225793183
0.408251023170564 -0.978352764523803 0.244746747126125
0.401042143153541 -0.960133891137291 0.202257535099137
0.402331630096309 -0.962276435906909 0.165194795082484
0.415970099123691 -0.994408530649516 0.132350106937990
0.420156097486692 -1.003431487416420 0.095174071080443
0.435430839712489 -1.038893092423570 0.059034958642041
0.435370223708507 -1.038240141011142 0.019651409648381
0.441843529304407 -1.059375702882463 -0.020035362590001
0.415512619787243 -0.995266010761103 -0.056522832742379
0.387957896063549 -0.928353308447717 -0.088027300175135
0.384401217221294 -0.919391381625747 -0.122356820778768
0.368349250288036 -0.880135715144092 -0.151115693228863
0.386117194005901 -0.921687014632975 -0.194243557293323
nan nan nan
nan nan nan
0.409831229386956 -0.992849244280212 0.287806778154003
0.406150168443376 -0.983444870079895 0.245646551343501
0.396770344343232 -0.959783000444060 0.201875917108384
0.412397531272727 -0.996599520882813 0.170826435823932
0.407766564667715 -0.984921745784941 0.130887674817128
0.413424412451365 -0.997602317910800 0.094476825138461
0.431620181474856 -1.040482048188120 0.059034958642041
0.430028879281049 -1.036134993099277 0.019581600022632
0.438720748079115 -1.062836435944534 -0.020070267402876
0.405760337375566 -0.982015111106895 -0.055685457442492
0.386837176770567 -0.935292389905351 -0.088550234631621
0.381787919113286 -0.922628358353391 -0.122600559465578
0.356805534285915 -0.861404760002835 -0.147674134997978
0.374465130602606 -0.903146984326879 -0.190045759395039
nan nan nan
nan nan nan
0.409111728871490 -1.001498240913772 0.289877330514823
0.401239684909620 -0.981249073897555 0.244746747126125
0.400110965304754 -0.977514615054607 0.205310479025162
0.411163029790375 -1.003516683004996 0.171765042614173
0.406584866743694 -0.991849390633061 0.131618890877559
0.412964996374344 -1.006412344898210 0.095174071080443
0.423432553552739 -1.030897426250886 0.058406927167125
0.427169561505664 -1.039479368944424 0.019616504835507
0.434251547935105 -1.062510318708412 -0.020035362590001
0.394011139670572 -0.963091510406366 -0.054534066405147
0.384325099456127 -0.938480779155519 -0.088724546117116
0.374049333032749 -0.912934088837289 -0.121138127344717
0.353796496759914 -0.862644995773471 -0.147674134997978
0.377275101675799 -0.918977904212740 -0.193098703321063
nan nan nan
nan nan nan
0.408686880100739 -1.010012607702475 0.291947882875643
0.399274586223545 -0.986256344268093 0.245646551343501
0.405544610975026 -1.000739626737156 0.209889894914199
0.399489595042153 -0.984810270081565 0.168323484383288
0.409092340161713 -1.007977595380070 0.133568800372042
0.411699168003777 -1.013385355230804 0.095697005536929
0.409122396288193 -1.006538885543334 0.056941520392323
0.421277617245421 -1.035407388057246 0.019511790396883
0.420789142141240 -1.039921659932417 -0.019581600022632
0.391396724630550 -0.966312171207387 -0.054638738317633
0.382544085882925 -0.943509402658288 -0.089073169088107
0.367875528222963 -0.906876181011490 -0.120163172597475
0.362674102516107 -0.893158609317137 -0.152680037879265
0.364454606780203 -0.896645446614153 -0.188137669441273
nan nan nan
nan nan nan
0.403546146482328 -1.007916843258931 0.290912606695233
0.398729326247675 -0.994879551705166 0.247446159778252
0.407165893154042 -1.014903770237875 0.212561220849471
0.392934075261559 -0.978935011336128 0.167072008662967
0.408531724224575 -1.016767332412139 0.134543755119283
0.406672365696964 -1.011119316856569 0.095348382565938
0.405606427389249 -1.007960857035599 0.056941520392323
0.417660804413556 -1.036871613311952 0.019511790396883
0.413438601500745 -1.032102653902149 -0.019407075958259
0.386534609584465 -0.963964956110204 -0.054429394492662
0.374795279638352 -0.933744982736018 -0.088027300175135
0.367666787205300 -0.915523177035704 -0.121138127344717
0.358080604881593 -0.890753484558625 -0.152054300019104
0.353993452708937 -0.879698939373732 -0.184321489533742
nan nan nan
nan nan nan
0.397528032804371 -1.001996871643102 0.288842054334413
0.396865914395594 -0.999818847670933 0.248345963995627
0.392198884593127 -0.987056346112435 0.206455332997421
0.393507070108670 -0.989342188585759 0.168636353313369
0.401487848789313 -1.008894412315362 0.133325061685231
0.401842485865475 -1.008760458300363 0.094999759594947
0.404480033418206 -1.014866348909303 0.057255536129781
0.411256109797168 -1.030821580652837 0.019372171145385
0.408538882923854 -1.029750480101911 -0.019337266332510
0.384810229993997 -0.968953917979088 -0.054638738317633
0.370224742370375 -0.931279812784816 -0.087678677204144
0.364628781387482 -0.916737370181501 -0.121138127344717
0.368277561070344 -0.924970692561953 -0.157685940760553
nan nan nan
nan nan nan
nan nan nan
0.395970349059605 -1.008842031675177 0.290394968605028
0.396224009922528 -1.008453135527076 0.250145572430378
0.385876711130020 -0.981111270816220 0.204928861034409
0.393494988485787 -0.999968707735005 0.170200697963771
0.396508626551157 -1.006595790406840 0.132837584311611
0.399049666777713 -1.012010503719488 0.095174071080443
0.400935024530343 -1.016272064797289 0.057255536129781
0.398841195410541 -1.009931914910603 0.018953313390890
0.396901531478342 -1.010695773327292 -0.018953313390890
0.375580002087972 -0.955420889121141 -0.053801363017746
0.368430845700262 -0.936274482382419 -0.088027300175135
0.363608198536775 -0.923545852188639 -0.121869343405147
nan nan nan
nan nan nan
nan nan nan
nan nan nan
0.394722317943081 -1.015551439072424 0.291947882875643
0.386344759678378 -0.993483901362932 0.246096453452188
0.383161839518809 -0.984281774665680 0.205310479025162
0.388742335621445 -0.997586953303542 0.169574960103610
0.391550361421034 -1.004274745109405 0.132350106937990
0.398412203028306 -1.020821437397608 0.095871317022424
0.393026244119326 -1.006502705982462 0.056627504654865
0.395313445265429 -1.011317977642979 0.018953313390890
0.396993328690978 -1.021394352250462 -0.019127837455263
0.371518465112993 -0.954864752435879 -0.053696691105260
0.365160393246504 -0.937554841930826 -0.088027300175135
0.358219913435181 -0.919260598373446 -0.121138127344717
nan nan nan
nan nan nan
nan nan nan
nan nan nan
0.394463774329829 -1.026007228166923 0.294536073326669
0.381474593183620 -0.991189052582509 0.245196649234813
0.385370169972937 -1.000269221795360 0.208363422951187
0.382951927695981 -0.993475516263537 0.168636353313369
0.389471656687961 -1.009339390309816 0.132837584311611
0.397000151845880 -1.027781605068007 0.096394251478910
0.386630569817331 -1.000416598909491 0.056208817004922
0.394666925336749 -1.020151693606569 0.019092932642388
0.387682139329404 -1.007842889126333 -0.018848598952266
0.367465395844670 -0.954291925112835 -0.053592019192774
0.366901725963245 -0.951837176567745 -0.089247480573602
0.354294609080870 -0.918653295192079 -0.120894388657906
nan nan nan
nan nan nan
nan nan nan
nan nan nan
0.384873771528434 -1.011060489408561 0.289877330514823
0.382173977754178 -1.003441375083017 0.247896061886939
0.379078602925450 -0.994270530846613 0.206836950988175
0.376837859241574 -0.987357853361884 0.167384877593047
0.388778663349073 -1.018110679305119 0.133812539058852
0.388430231112967 -1.016133776503617 0.095174071080443
0.384563058840362 -1.005491046655273 0.056418160829893
0.391103526937749 -1.021523123154815 0.019092932642388
0.380604695996281 -0.999845660245950 -0.018674074887893
0.368399229199791 -0.966766876775675 -0.054220050667690
0.360026402645814 -0.943804368291430 -0.088375923146125
0.352501420527438 -0.923593628780993 -0.121381866031527
nan nan nan
nan nan nan
nan nan nan
nan nan nan
0.386610685383366 -1.026928107361224 0.294018435236464
0.380730703977089 -1.010239911148347 0.249245768213002
0.377684639629570 -1.001098337723763 0.207981804960434
0.373914081553684 -0.990580499215955 0.167697746523127
0.381012344142099 -1.008319910943370 0.132350106937990
0.379241615332673 -1.002575277834834 0.093779579196480
0.383878733177445 -1.014299113116520 0.056836848479837
0.382576043977108 -1.009792206789279 0.018848598952266
0.376407381815800 -0.999296784870986 -0.018639170075019
0.368545720265910 -0.977391022626082 -0.054743410230119
0.353211672639689 -0.935735272548412 -0.087504365718649
0.354184822144946 -0.937817917801331 -0.123088036839199
nan nan nan
nan nan nan
nan nan nan
nan nan nan
0.386576410450499 -1.037255604217924 0.296606625687489
0.381968079174258 -1.024344233440384 0.252395082973817
0.372814686881957 -0.998732033087671 0.207218568978928
0.376850359278558 -1.008468606460686 0.170513566893852
0.373319165697835 -0.998487464670257 0.130887674817128
0.379231668363267 -1.013222830401194 0.094651136623957
0.381736698440305 -1.019373741572451 0.057046192304809
0.376241111111311 -1.003631705551535 0.018708979700768
0.372916891876882 -1.000604603773039 -0.018639170075019
0.362339149005560 -0.971186473142266 -0.054324722580176
0.352034489094532 -0.942561888106998 -0.088027300175135
0.350909068887809 -0.939048540044317 -0.123088036839199
nan nan nan
nan nan nan
nan nan nan
nan nan nan
0.385626679419631 -1.045848941020111 0.298677178048309
0.375017662452594 -1.016529854673276 0.250145572430378
0.370686507641814 -1.003710656443238 0.207981804960434
0.373327851008856 -1.009777915764771 0.170513566893852
0.371208918211434 -1.003508100827868 0.131375152190749
0.375692550247290 -1.014540423060846 0.094651136623957
0.375400490013649 -1.013208664498126 0.056627504654865
0.374126294557348 -1.008688689731484 0.018778789326517
0.372189062992634 -1.009405101265144 -0.018778789326517
0.356872030686834 -0.966824284583194 -0.054010706842718
0.350813925169860 -0.949391618803116 -0.088550234631621
0.343498793895622 -0.929096222610528 -0.121625604718337
nan nan nan
nan nan nan
nan nan nan
nan nan nan
2.399747712944480 -6.578958204566094 1.876438076993275
0.372803238665794 -1.021493986327909 0.251045376647753
0.371223000997104 -1.016062682314121 0.210271512904952
0.369624322362013 -1.011139448258033 0.170513566893852
0.369068152136671 -1.008526125592586 0.131862629564370
0.373519568448805 -1.019587258483903 0.094999759594947
0.369112007018087 -1.007011864461381 0.056208817004922
0.370603034649601 -1.009988488934372 0.018778789326517
0.365922322961002 -1.003183649636366 -0.018639170075019
0.352809942094318 -0.966188016980911 -0.053906034930232
0.350233995785675 -0.958095525199478 -0.089247480573602
0.344344775190859 -0.941475443644617 -0.123088036839199
nan nan nan
nan nan nan
nan nan nan
nan nan nan
2.372997134920940 -6.580440333310547 1.874367524632455
0.370558711963166 -1.026454999903570 0.251945180865129
0.371677728562505 -1.028430548691354 0.212561220849471
0.364077346871286 -1.006850544222440 0.169574960103610
0.369599599451536 -1.021007621916650 0.133325061685231
0.365206511547807 -1.007772590641764 0.093779579196480
0.366956249608550 -1.012049456302309 0.056418160829893
0.368439851101949 -1.015035372012971 0.018848598952266
0.362418329210656 -1.004454845172779 -0.018639170075019
0.353506256411850 -0.978684505997208 -0.054534066405147
0.345532455302880 -0.955564919536770 -0.088898857602611
0.339705596656736 -0.938938342181646 -0.122600559465578
nan nan nan
