# This PCD file was generated using the MATLABÂ® pcwrite function
# from Computer Vision ToolboxÂ®.
# .PCD v.7 - Point Cloud Data file format
VERSION .7
FIELDS x y z
SIZE 8 8 8
TYPE F F F
COUNT 1 1 1
WIDTH 953
HEIGHT 1
VIEWPOINT 0 0 0 1 0 0 0
POINTS 953
DATA ascii
0.111529069109665 3.397793347645475 -0.538447428668475
0.106416034645675 3.276907342537002 -0.637302044557660
0.105627805112882 3.270229242871749 -0.755385640486699
0.105246440270421 3.294058015728918 -0.883090581889801
nan nan nan
1.423354044782360 38.090772674330609 8.800085245931998
1.393470486679085 37.643178709103445 7.322104388579531
1.426783251922433 38.910499666722451 6.166959480815982
1.333659063923872 36.545043518423476 4.490154088419254
nan nan nan
1.684463129970474 47.059239453239563 2.467849680679774
nan nan nan
nan nan nan
0.133172260990038 3.580607112011282 -0.187781410999682
0.126612524275006 3.436532489577526 -0.300861623964916
0.124823803304971 3.404130620648159 -0.418255586566466
0.125969959588651 3.468450043524645 -0.549710710151371
0.118277354860261 3.288287830689165 -0.639591752502178
0.117321230263814 3.277630581341520 -0.757185248921450
0.116949501967712 3.299462486328733 -0.884643496160416
nan nan nan
1.569355773418091 38.404899062802251 8.873869191756787
1.553869099974847 38.354085729457736 7.461394955204408
1.757139399328685 43.748951353706218 6.934739835233434
1.458123500763539 36.462808762501240 4.480648279633652
nan nan nan
1.853424989826974 47.172816033949083 2.474129995428926
nan nan nan
nan nan nan
0.145994894923987 3.588102871090014 -0.188200098649626
0.139169629204964 3.450004985181836 -0.302081804363383
0.137263333391531 3.417558616856406 -0.419961757374138
0.138626447138574 3.481805885343534 -0.551900792661934
0.129909739627821 3.291778386871433 -0.640354988483684
0.128914595686970 3.281095560819034 -0.758085053138825
0.128992255051316 3.312546875283325 -0.888266962791851
nan nan nan
1.697272624768174 38.260962399499604 8.841926142039958
1.685237079495225 38.291548730490739 7.450328033472569
1.915010916430481 43.860961052610101 6.953511971038263
1.584013694392346 36.425765329449057 4.476748460644687
1.733863327602279 40.194940182633125 3.519871826606923
2.021680341291922 47.057953444473441 2.468477712154689
nan nan nan
2.368439940190669 53.181177513360623 -0.929201023533849
0.158959641698571 3.597547955014852 -0.188723458212055
0.151211546120011 3.449498173907701 -0.302081804363383
0.149711534019668 3.428957875082452 -0.421424189495000
0.150522945714551 3.475380196835003 -0.550962185871693
0.140893799299714 3.279536192068837 -0.638065280539166
0.140616882679344 3.286466451741452 -0.759434759464888
0.140308691121719 3.306286083712477 -0.886714048521236
nan nan nan
1.856715661694579 38.795935111455805 8.966998928255148
1.813858271101777 38.179536574681258 7.429720661971902
2.088458554369559 44.121998360484241 6.996062145529205
1.725501037419780 36.725381525114841 4.514284218413473
1.879728028677851 40.308056576667916 3.530330515736642
nan nan nan
nan nan nan
2.543892649295691 52.960862510707017 -0.925501113369145
0.171992100994764 3.606946126456235 -0.189246817774485
0.163628427541976 3.456909976322253 -0.302779050305365
0.162147471848862 3.438328836932623 -0.422642882929051
0.161544998989286 3.451155006966268 -0.547207758710728
0.152705109912904 3.286868956855092 -0.639591752502178
0.152448332713708 3.293742209551507 -0.761234367899639
0.151937573535803 3.307705988751218 -0.887231686611441
nan nan nan
2.041029319635417 40.014076688782453 9.249987354619728
1.939653956218891 38.289333440147843 7.452236123426333
1.960910986450235 38.978223642631860 6.181351451599683
1.850609092412837 36.914074517779049 4.538170609720882
1.832987447116573 36.819583471344131 3.225285416119838
2.379056660686349 47.957131447077572 2.516417448073225
nan nan nan
nan nan nan
0.185452091368159 3.648276354852314 -0.191444927936689
0.175090526451593 3.468317996667675 -0.303824919218336
0.173846139013987 3.455645734415503 -0.424836531110344
0.172189181613370 3.446684636026080 -0.546582020850567
0.163613983571676 3.298138058831774 -0.641881460446697
0.162987588986007 3.297139752805156 -0.762134172117015
0.163085929705793 3.322648571005226 -0.891372791333081
nan nan nan
2.068051271635066 37.940214014519405 8.772191315193361
2.138910202976853 39.493845266325479 7.688076041711744
2.374649746048012 43.988826612036320 6.977290009724378
2.171241628223435 40.483356880054558 4.977875200726654
1.897046610566498 35.603304011108719 3.119304032938686
nan nan nan
nan nan nan
nan nan nan
0.199377754781419 3.669544272633316 -0.192596318974033
0.188055339449422 3.483601627682323 -0.305219411102299
0.186120853587065 3.458982294789488 -0.425324008483965
0.183375715619309 3.430282104018727 -0.544079069409923
0.175542107066866 3.305388812402981 -0.643407932409709
0.174701777801567 3.300442764204873 -0.763033976334390
0.175697564183704 3.341350916576171 -0.896549172235132
nan nan nan
2.209359136418623 37.971288385784149 8.781189357367115
2.236265663064847 38.666469200107301 7.528559721576952
nan nan nan
2.181040657262279 38.057281646496932 4.680514002818094
2.030925539578210 35.655786804185873 3.124533377503545
nan nan nan
2.944892286259530 52.183008548649049 0.912307094102558
2.953731667884110 50.612160429929396 -0.884941720808898
nan nan nan
0.201969014128834 3.502779828220691 -0.306962525957252
0.199367027403299 3.468185997293808 -0.426542701918016
0.196623164525578 3.441419920357766 -0.545956282990406
0.187878388330896 3.308643410374058 -0.644171168391215
0.187348031492587 3.309508407574751 -0.765283486877829
0.188594120291327 3.352257319683205 -0.899655000776362
nan nan nan
2.350769184905751 38.107278114707590 8.814482113410005
2.813784226231887 45.873570066717434 8.933677163529827
2.706970407247128 44.258574936569204 7.022968873516124
2.319173868751777 38.136619538907084 4.691238505037747
2.105594041069547 34.825134669480974 3.052368422508484
2.857036885793019 47.390802734234448 2.488156031702036
nan nan nan
3.108281612061862 50.244279143972975 -0.878693759304350
nan nan nan
0.214924561806010 3.513985523792317 -0.308008394870224
0.213163817480062 3.495208698698484 -0.429955043533360
0.209471694230516 3.454514896668456 -0.548146365500969
0.199426564514353 3.307967435024036 -0.644171168391215
0.199133091839740 3.312724735950886 -0.766183291095204
0.199372578946259 3.336151291044399 -0.895513896054722
nan nan nan
2.465998222626847 37.928145347226938 8.774890727845486
2.998071102712482 46.361614191138813 9.030608133181113
2.495558556776726 38.801169141007961 6.158199150773728
2.441814744539082 38.069288550658172 4.683926344433438
2.226393983723094 34.901471401115032 3.059689504899288
3.000733888700678 47.169785518675255 2.477060808978531
nan nan nan
3.261351216648325 50.026167670877754 -0.875063658765395
nan nan nan
0.227730214247590 3.531147817332038 -0.309577198239682
0.225262819547189 3.502406600997595 -0.430929998280601
0.220547828537434 3.447887226133449 -0.547207758710728
0.211142933141796 3.319043687141149 -0.646460876335734
0.211227814632560 3.329549645942839 -0.770232410073394
0.211164389923620 3.347039914759799 -0.898619724595952
2.580484714182061 37.466436375923649 10.062884473586006
2.603173153294024 37.989296852006710 8.791087203758243
2.859439609693754 41.943773480466810 8.171967653986661
2.698060520010641 39.678633397299571 6.298990169309936
2.581117506200142 38.155600254122731 4.695625801400332
2.427272224882464 36.068332013396308 3.162707592827020
2.936777488112189 43.753370918270051 2.298176510540149
nan nan nan
3.420331052154951 49.787049433260577 -0.871084510097695
nan nan nan
nan nan nan
0.237890103622932 3.507540576334349 -0.431661214341032
0.232182917589080 3.441183678102623 -0.546269151920486
0.223516151866500 3.330039520674015 -0.648750584280252
0.222588487531780 3.324903262770979 -0.769332605856018
0.223873395233130 3.361703078494084 -0.902760829317592
2.717387839075904 37.541980216967673 10.085660549555030
2.582256714380934 35.761762085318267 8.277748897745544
3.333688130040778 46.393803384062970 9.041293436922199
2.848664942999690 39.838423418695861 6.325896897296857
2.627447969787630 36.835083026408050 4.534270790731918
2.567493576262088 36.172474547995961 3.172643347500252
3.088658260095463 43.622776917340587 2.291896195790996
nan nan nan
3.590948761427948 49.610631733568646 -0.868222315441980
3.565259406120036 49.495659017243966 -2.600678337624365
0.254417039397596 3.549300724469374 -0.311320313094635
0.249328450165697 3.486844738422900 -0.429223827472929
0.246756764646365 3.467895100612617 -0.550649316941613
0.236413149227780 3.338989684397997 -0.650658674234018
0.235459843953217 3.333784591052347 -0.771582116399457
0.236870308501181 3.370495454581501 -0.905349019768618
2.848563442826358 37.534192356826637 10.086178187645233
2.694419517143829 35.585417153698451 8.239057316398400
3.203770386224416 42.509548752514434 8.286453051212588
2.614744647485395 34.856355603458049 5.536215717773771
2.630824739717844 35.152961978742681 4.328311600377218
2.879631118577155 38.658819374137309 3.391578573282370
3.172676964142328 42.693525146842539 2.243642444135002
nan nan nan
3.764251632708963 49.599788699601568 -0.868257220254855
nan nan nan
0.268448116021801 3.570245611662865 -0.313237739435083
0.262537750110154 3.499809890029597 -0.430929998280601
0.259890032964959 3.480801885942208 -0.552839399452176
0.248066957985234 3.338144106236276 -0.650658674234018
0.248104042369842 3.346546218675622 -0.774731431160271
0.249629195126705 3.383134387503414 -0.908972486400053
2.956627496169133 37.235151826781802 10.008532474114478
2.804767166376656 35.400956351628579 8.198566126616504
3.350901870222696 42.482449121004585 8.283400107286562
2.738142399018444 34.791397918728926 5.527455387731518
2.765144779241872 35.291991560677829 4.346592001887990
2.853426292619545 36.582721642760042 3.210294628367241
3.335787711097094 42.863393008091506 2.253167588171217
nan nan nan
3.991656370525292 50.270090225917215 -0.880229571070831
3.946916178533061 49.927503733029852 -2.624752877496119
0.282003210933596 3.583190534380930 -0.314457919833551
0.274131154390992 3.490956139903864 -0.429955043533360
0.271422895133079 3.471996021655377 -0.551587923731854
0.259870071247743 3.339215189826732 -0.651040292224771
0.260538466528775 3.355374244952126 -0.776980941703710
0.262032545650696 3.389946832406840 -0.911043038760873
3.102679681209365 37.339578146747115 10.039590759526780
2.936196471642810 35.486113278886130 8.220611329942203
2.983953282250848 36.217121265355431 7.063749008839689
2.856656890154247 34.746190840423232 5.521823746990069
2.837624961172166 34.662862074230802 4.270301792916367
3.147182085417517 38.609972586080637 3.389138212485436
nan nan nan
nan nan nan
4.144799558046143 49.986814880211803 -0.875517421332765
nan nan nan
1.660287238010539 20.194464872789972 -1.772747807487367
0.286152885079023 3.487999529938046 -0.429711304846550
0.282414969366780 3.457245695223142 -0.549397841221291
0.272956951408694 3.355898861404210 -0.654474854141549
0.272564606934006 3.358329060734247 -0.777880745921085
0.277287372866418 3.431374159357034 -0.922431076745384
3.206854292578947 37.177594877039319 9.998697350400581
3.064051640523304 35.594616536017583 8.248055358572156
3.060939524692705 35.704314617465137 6.965673185216144
2.969337898008617 34.707003978198593 5.517130713038862
2.949016529768394 34.611725138902749 4.265183280493351
2.996244588869927 35.311740655216589 3.100478392505191
3.788402583882947 44.740275284429515 2.353129264595240
nan nan nan
4.324802654432663 50.138156068306479 -0.878414520801354
nan nan nan
1.725207320334114 20.165026476174948 -1.770656069661423
0.300082115966678 3.514721984816511 -0.433123646461894
0.295718978189061 3.477941184717214 -0.552839399452176
0.285243538837260 3.368669028201203 -0.657146180076820
0.284191978155361 3.363232198621268 -0.779230452247148
0.415340223350034 4.935823415064894 -1.327224063285726
3.339890803043121 37.202732522468615 10.008532474114478
3.165847056853884 35.333319710898571 8.190017986551437
3.185726714867200 35.695367903649625 6.966054803206898
3.094325499272716 34.739714519783213 5.524013829500632
3.072447451940336 34.630880167370684 4.268839360795505
3.433067079136595 38.849630642237450 3.412147328570817
3.911389966651292 44.350756247198596 2.333346273135408
4.702245482430439 53.531687484915970 0.937997036378240
4.420938398278272 49.244420979153162 -0.863021498323670
nan nan nan
1.793641465388109 20.137051668634697 -1.768738643320975
0.312524730223256 3.515630384794206 -0.433367385148704
0.309077039341470 3.490661492884133 -0.555029481962739
0.298035495818311 3.379386801303136 -0.659435888021339
0.295759257649158 3.360278458140167 -0.778780550138461
0.431385976981944 4.920872239694884 -1.323600596654291
3.484985768456077 37.354344866123377 10.052531711781906
3.314640458069941 35.595642326953154 8.253454183876407
3.235048404761157 34.872762916083673 6.807683337044365
3.389108273946554 36.672653339579689 5.833128332420129
3.188937164351715 34.572503513003170 4.262989632312059
3.535476834333303 38.476316642071723 3.380422638210670
3.892949985837484 42.529591573221019 2.238199504685736
nan nan nan
4.606923995830913 49.380008742051764 -0.865674264102137
5.087400958616633 54.736647264184676 -2.880989719261572
1.855288445327895 20.037424548933018 -1.760546003502695
0.326986756380645 3.538238083322476 -0.436292249390428
0.323795147580396 3.517100161960813 -0.559409646983866
0.311443639016120 3.395921322162108 -0.662870449938117
0.310151548743703 3.388335000927061 -0.785529081768777
0.448209549516135 4.915488701319775 -1.322565320473881
3.674653003445129 37.885481192768154 10.199023291309931
3.492671989055413 36.140550030233676 8.382576089069786
3.367483021719471 34.972648341180225 6.829435562517292
3.369661043308960 35.059404534584658 5.578453023334633
3.323411940968867 34.705413263279631 4.280782556449210
nan nan nan
4.056187108287807 42.592579810089234 2.242281709272685
nan nan nan
5.292243707609548 54.662041089514460 -0.958590875974234
nan nan nan
1.920074176755837 19.977278555349432 -1.755839593394321
1.204167163845676 12.551676663788955 -1.548228138618994
0.864234076800239 9.041572206135426 -1.438571340509963
0.672276417743625 7.059335827649524 -1.378404182600160
nan nan nan
0.463361547757032 4.892738502249461 -1.316871301481626
4.114848800956130 41.008193899166180 11.043291016434354
3.585786480891513 35.798501852231858 8.306092730592871
3.481740232990655 34.882538678741845 6.814170842887169
3.493783331895760 35.065119422640663 5.581268843705357
3.451204429626889 34.760763877328166 4.289069671800760
3.528996721911098 35.670937360876223 3.136037935546236
4.180360190873116 42.405971477664075 2.233175252886413
3.935219059811128 39.990726073132862 0.701412214714424
4.985487106403136 49.684892891730925 -0.871608082290813
nan nan nan
1.994339559353967 20.016053708773565 -1.759848757560714
1.249152171699021 12.559248941990903 -1.549690570739855
0.896958718101130 9.050294858237555 -1.440448554090446
0.700579940047431 7.094067393112456 -1.385654924424468
0.579081720445963 5.874260063542329 -1.362753487215134
0.481004123114586 4.896859056667331 -1.318424215752241
3.906098815045437 37.605951305337911 10.130695063402868
3.773434406337452 36.390531368465219 8.446462188503444
3.705192983996049 35.854411364239404 7.006506310226725
3.617986554625707 35.070394747635468 5.584084664076081
3.643171641684774 35.435695001356478 4.373890734810743
3.785893759655977 36.950674225070813 3.249689024089183
4.164841141352656 40.789656521933885 2.148809691422788
4.068097153380382 39.911096163656396 0.700260355889564
nan nan nan
5.680877373010185 54.879036190584507 -2.891456910510161
2.072170292965513 20.086263191252272 -1.766646905495031
1.293797975145333 12.562710664007813 -1.550665525487096
0.921082438048786 8.974401751444331 -1.428872403677469
0.728135266925985 7.118921602026533 -1.390997576295012
0.598989343978967 5.866386921366558 -1.361403780889071
0.499463349190837 4.908603700475220 -1.322047682383676
4.052816198514987 37.736147791374144 10.169517920168245
3.877910307897998 36.226679855147736 8.411369824025801
3.707015254493221 34.744805184392924 6.792036999423489
3.723967752030033 35.019569428467520 5.577827285474472
3.557591223582126 33.510613566880743 4.137707947291567
3.887441326764583 36.739783681412376 3.232257875539651
4.197467387064101 39.736083072498545 2.094066281192668
4.219058874250068 40.074381108655601 0.703366884235400
5.258327249694399 49.041387611638562 -0.860927209551196
nan nan nan
2.146364351457279 20.150603743581730 -1.772922118972862
1.317188101686715 12.386616439474805 -1.529460259734601
0.953335931179101 8.994870480773178 -1.432626830838434
0.751325981621915 7.112563092750246 -1.390234340313506
0.617417814048763 5.854678378211434 -1.359154270345632
0.512709117158371 4.878101399647450 -1.314283111030600
4.211565710102168 37.965620300613821 10.235257957624285
4.005198120517271 36.220670453708010 8.413169432460551
3.813433064729807 34.597004541849039 6.765705358061525
3.857913988762081 35.056736778494965 5.585961877656564
3.678223158536110 33.531536447153876 4.141851504967343
4.015446861511204 36.724009562374199 3.232083564054156
4.333325427692861 39.759669817233579 2.096055047529901
4.361514618811978 40.083265234499812 0.703785741989895
nan nan nan
nan nan nan
2.218869430440447 20.162793104093982 -1.774665233827816
1.378411803231019 12.545720227857522 -1.549690570739855
0.988599036050692 9.026833360312374 -1.438258471579883
0.770396475401703 7.057202325233810 -1.379930654563172
0.638272971745710 5.856362055730798 -1.360054074563008
0.533071964854029 4.907010826701577 -1.322565320473881
4.224610166744839 36.850181527927745 9.938651331936796
nan nan nan
3.923321061765287 34.434547023949357 6.736702390764290
4.031981990951409 35.498416102141682 5.658547469435232
3.895045834018231 34.346258539448343 4.244221753427666
4.165911141558149 36.849609790994833 3.244459679524323
4.470075934337313 39.664132521666069 2.091868171030465
4.490062833759781 39.904063526534252 0.700923547334180
nan nan nan
nan nan nan
2.276990901345288 20.015951615990094 -1.762463429843144
1.422816695618931 12.526776957710814 -1.547984399932183
1.028344855795572 9.082034361577030 -1.447644539482296
0.800000706370087 7.087496000302496 -1.386418160405975
0.659515086593862 5.852046850871916 -1.359604172454320
0.551916184102334 4.912703159170659 -1.324635872834701
4.759062226933190 40.269326350510944 10.865223513403821
4.301909072596541 36.510415827364511 8.487403280394027
4.056323202562071 34.529833701116040 6.758072998246464
4.187120621569293 35.750953030022139 5.701097643926174
3.940208286374528 33.693636366646878 4.165250418901130
4.198071169490158 36.007627912564786 3.171597478587281
4.599739634893787 39.572899110040602 2.087890638356001
4.617108422786660 39.782869955859759 0.699073592251828
nan nan nan
nan nan nan
2.362164878402467 20.138483822403266 -1.773967987885834
1.471383832469855 12.563138022054048 -1.553102912355199
1.053167838589691 9.019528040462486 -1.438258471579883
0.824508798101585 7.082710211842833 -1.386036542415221
0.681963490047515 5.867130431395530 -1.363653291432510
0.568171850043432 4.903070642148454 -1.322565320473881
4.404907222144515 36.293963435823386 9.796300857130410
4.433508712063890 36.583005769276475 8.507648875284975
4.179991195388527 34.592206568467034 6.772956099885834
4.308723784512842 35.762366984806413 5.705164940017220
4.054289814764345 33.700093715767920 4.167687805769233
nan nan nan
4.344820838759835 36.328897974694016 1.917484764828976
4.643964325585515 38.887725205664815 0.683610760148395
5.846649231833087 48.173108476715427 -0.847035094027118
nan nan nan
2.430126853899537 20.140430086330046 -1.774839545313311
1.516123469919474 12.583810575285840 -1.556271515283733
1.087312753887063 9.051288986590542 -1.443890112321331
0.849392244940311 7.091633030325054 -1.388326250359740
0.702572916039432 5.874511454853256 -1.365902801975948
0.584656633115112 4.903077819707923 -1.323082958564086
4.554926285579688 36.413675673507093 9.833053161534968
4.585300689012017 36.760682559677008 8.552639086153748
4.253947089992320 34.201394158427306 6.699303827670488
4.419186640220490 35.631447795815795 5.686705673142473
4.095533073366734 33.069113362016196 4.091397596797611
4.839635510448299 39.189464947173626 3.454679331031674
4.475511433591207 36.345226979097731 1.919159515428750
4.772358086838244 38.811735405691756 0.682563615762158
5.998162657933362 48.019459936570513 -0.844696471564522
nan nan nan
2.499432981061319 20.123915868308643 -1.774142299371330
1.550511102863269 12.501611702860519 -1.546765706498132
1.123022653224959 9.080765922018607 -1.449208884132699
0.877505419989451 7.115903823748981 -1.393668902230283
0.724027174783673 5.879759754167813 -1.367702410410699
0.602709740686967 4.908676923669396 -1.325153510924906
4.677815938569646 36.364981078878550 9.824253314001481
4.758241281613726 37.041289802818113 8.621924010891659
4.395986723023984 34.316044792197964 6.724872233050945
4.526222990876114 35.430822788588500 5.657295993714909
4.298100011851497 33.691879722935738 4.170368931324147
4.762980333583599 37.440084483230542 3.301982469737777
4.673681303494901 36.789425382423779 1.943548071037962
4.923625701931706 38.865401373153972 0.683820189025643
6.164172456265328 47.919802250187551 -0.843335183862414
nan nan nan
2.572921214420135 20.112643535904052 -1.773967987885834
1.603113172400131 12.549010253329692 -1.553346651042010
1.160291901150551 9.107941482978154 -1.454214787013986
0.903333196506481 7.110692208193646 -1.393287284239530
0.746798979341798 5.886732796613765 -1.369951920954138
0.623848869118546 4.931350401190445 -1.331882806097572
4.787747359033553 36.171398164122621 9.776630609702618
4.795697551814909 36.328942159798821 8.459959251764076
4.762776188150193 36.176876819131245 7.092751976136924
4.647813156015863 35.351322665032910 5.647284187952335
4.424455018138820 33.743591620277279 4.178656046675697
4.886924887438823 37.371865650440377 3.297450371114899
4.815261552809340 36.873889708265828 1.948886338574742
4.975073678742658 38.201536156242312 0.672441220028534
5.216118577855417 39.460682803470483 -0.694780300268257
nan nan nan
2.650383765498769 20.158850740167779 -1.778848709479703
1.636312425604877 12.462641695760817 -1.543353364882788
1.194129249552580 9.119505072416739 -1.456717738454630
0.928657076211687 7.111389117596746 -1.394050520221036
0.766586958836413 5.878292984588049 -1.368602214628075
0.638567210216895 4.909985537593847 -1.326706425195521
4.901099834604995 36.154264196322764 9.776112971612413
4.904377438271452 36.225938763998421 8.439713656873128
5.064511750030072 37.507237770387036 7.356831625738061
5.295109873418318 39.318515454727077 6.283659591735994
4.561465617670598 33.915635006205235 4.201811221922675
4.960499459577973 36.980260991519408 3.264331188870789
4.873338092467935 36.378661673678323 1.923555735753157
5.100667909370397 38.176899840556878 0.672301600777035
5.339424786006957 39.387684577791916 -0.693802965507769
nan nan nan
2.700443754463266 20.025556309266282 -1.767867085893498
1.692203006666206 12.565350230813717 -1.556758992657354
1.220156615829033 9.084170329716684 -1.451711835573342
0.954580232720910 7.125783327080663 -1.397485082137814
0.787626311375106 5.887307758275282 -1.371301627280201
0.657656294935688 4.928904670822887 -1.332400444187777
5.014389164074453 35.998294706352681 9.738843029117650
5.039113281823075 36.268434752783328 8.453660622242447
5.344708144991574 38.566677497123550 7.568247992615273
5.593010619960486 40.410263015596591 6.461369144021696
4.765609166667115 34.520901790798177 4.278832646954728
5.092272201706259 36.982457983025853 3.266074303725742
4.977981822260049 36.199180609088387 1.914972638929315
5.235257761733392 38.168768332626726 0.672476124841408
5.485973707418508 39.434167041712058 -0.694954824332629
5.485306099954884 39.530470705587028 -2.091554155293007
2.807478505313552 20.284414337685657 -1.791573447920861
1.736869386389176 12.565265973483106 -1.557490208717785
1.256445406071576 9.113122557647614 -1.457030607384710
0.978913117545873 7.118517907034184 -1.396721846156308
0.808172052044365 5.884522561883255 -1.371301627280201
0.679838841038062 4.962944572577423 -1.342235567901673
5.592944422612878 39.248967383963148 10.622968887187863
5.092083967003870 35.778846821199053 8.343434605613954
5.460980717409999 38.467103635661957 7.552220037003643
5.722428104800009 40.410095438287669 6.464184964392421
4.835580510210638 34.190423584769384 4.239834457065081
5.181484048855530 36.728625560733335 3.245156925466304
5.088242331472834 36.113253625454419 1.911309121992309
5.333135881238785 37.947233574727285 0.668880929115328
6.744850131008675 47.332564531010448 -0.834539171018023
5.597250866522912 39.377601391648646 -2.084436465243967
2.884238318207356 20.342063291014426 -1.797500038427702
1.787990975021031 12.626263645460348 -1.565777324069335
1.288316410436563 9.120641687761145 -1.458907820965193
1.004157056103080 7.126896889823142 -1.399011554100827
0.824422800318471 5.858653478562229 -1.365902801975948
0.694681652989567 4.949184270378313 -1.339129739360442
6.143495164401021 42.009465562726881 11.376132308436198
5.212443423027787 35.730000896284039 8.336236171874949
5.681172555500670 39.038414950244544 7.668231906192583
5.882149581079309 40.468998507598137 6.477012590525719
4.896219604177200 33.768638792770027 4.189624287582160
4.775755768950098 33.018973271248818 2.918845824619072
5.217982352531304 36.120969950810455 1.912669856854625
5.534300630054123 38.405385751782390 0.677292989018099
6.669571055516533 45.662454054908714 -0.805498366706383
5.742157512747346 39.409209568999181 -2.087157934968600
2.953221728383205 20.318069792542886 -1.796279858029235
1.839754069320984 12.672986958075059 -1.572358268613213
1.300327788158831 8.979240198212356 -1.437006995859561
1.028467060832229 7.119462138789672 -1.398248318119320
0.846537994896066 5.867312621747071 -1.368602214628075
0.714154931529091 4.962026418028393 -1.343270844082083
5.423988319126454 36.249473496629129 9.821147485460251
5.345485867032163 35.767481106029805 8.349283333026893
5.818565480954001 39.026113285396008 7.669758378155595
6.366799287140561 42.805652063013333 6.854332520202756
5.074738321109606 34.159759028198366 4.240321934438702
4.869370016058475 32.856257744748795 2.905946774692418
5.339941903030253 36.074875495589126 1.911204450079823
5.677382495650861 38.447159001746812 0.678375038217210
7.240249504074136 48.387868311115135 -0.854016056602031
7.099853949842469 47.563016584843496 -2.520290308835203
3.012682013162531 20.230781653134482 -1.789481710094917
1.869377609792018 12.568313202642669 -1.560171334272698
1.329923664323174 8.962922601199278 -1.435129782279078
1.049287690534960 7.088639442616888 -1.392905666248777
0.865303494645771 5.852755197145023 -1.365902801975948
0.730061899285370 4.949947438656761 -1.340682653631057
5.511709324404507 35.935283804607487 9.741431219568675
5.481506294201740 35.821804043280359 8.366379613157028
nan nan nan
6.527220376200935 42.805462707263274 6.858086947363722
5.955260395633920 39.146244645980687 4.861855585804953
4.973566350163889 32.770116198681713 2.899845872700082
5.851696514472492 38.601401918366065 2.046126545274132
5.809759386252783 38.415243735790050 0.678165609339963
7.010598721614419 45.761050186158805 -0.808081322859101
nan nan nan
3.082981926277606 20.218172555291126 -1.789307398609422
1.910248854102204 12.542086679038082 -1.557733947404595
1.367433795074527 8.999237847736426 -1.441700029810768
1.069317211251769 7.053876315640892 -1.386799778396728
0.884852925686856 5.843918732242581 -1.364553095649885
0.747335992530475 4.947368890281103 -1.340682653631057
5.606010232846171 35.758399937820791 9.698467258081658
5.581792122233178 35.644579059868100 8.329487640244633
7.144307423360316 45.727016480626389 8.996262514013335
6.662439044546792 42.740642578757900 6.851203830901951
6.651367970795738 42.718610912513945 5.308384860041413
5.078138278029779 32.689554737291004 2.894267905164232
6.001410725795011 38.677448937349375 2.051255468985941
nan nan nan
6.745977605825392 43.029776111952799 -0.760261729220944
nan nan nan
3.158760351198089 20.240753316110034 -1.792270693862843
1.967164310380646 12.619682690003106 -1.568214710937438
1.406731419421776 9.045159494585070 -1.449834621992860
1.093331265287890 7.046220649925296 -1.386036542415221
0.904649686554301 5.836942919489833 -1.363653291432510
0.766667468856742 4.958094195073507 -1.344306120262493
5.755877597912424 35.895027116245757 9.740913581478472
5.738234649523118 35.824995952933165 8.376277459548158
7.281573369718020 45.562216612150898 8.968786018679111
6.817190218584360 42.752239109062472 6.856835471643399
6.872260205040702 43.146020628935140 5.364444758007782
5.180957667740845 32.600792503524261 2.887992691686401
6.097242564193569 38.409694429034531 2.038171479925205
6.298656445154561 39.768151671012333 0.702808407229407
6.901204257073717 43.037557649289816 -0.760820206226937
7.584912764765445 47.407173485335385 -2.516103432335767
3.234733920773919 20.263050989081488 -1.795233989116263
1.999950003577830 12.542167376530228 -1.559440118212267
1.437985968909907 9.038243139051751 -1.449521753062779
1.115458124457624 7.026849474614592 -1.382983598489197
0.922272233759147 5.816427290105303 -1.359604172454320
0.783064151111115 4.949663459574111 -1.342753205991877
5.875199245262751 35.799342029880350 9.720725695960473
5.902603528036278 36.005646027989542 8.423517180960369
6.006481126793579 36.719578445734307 7.232424160752555
nan nan nan
7.036740732021026 43.159727196037146 5.369319531743987
5.265859541226291 32.369198379386553 2.869167051252907
6.114963313177968 37.630071561528013 1.997977465530624
6.426768500041224 39.636233445644947 0.700888642521306
7.106180135301647 43.300075890145912 -0.765916308906624
nan nan nan
3.302875451883915 20.213699043994726 -1.791922070891852
2.038551139012873 12.489692100087982 -1.553834128415630
1.486026901796562 9.124547360397823 -1.464226592776561
1.143094735732786 7.034340928020350 -1.385273306433715
0.946706694313200 5.832243557355374 -1.364103193541197
0.803362382049087 4.960109145827761 -1.346376672623313
6.544030525471467 38.980192717832956 10.590875325595150
6.206300326139706 37.047665603590602 8.672313047064684
6.017119413383847 35.995480073598763 7.093896830109182
6.631956661205821 39.716170636655434 6.377520270760132
6.726337019459646 40.368111496359901 5.024916767281041
5.399077476675250 32.472475206970039 2.879974363353617
6.207665680987172 37.376005343896217 1.985626179857289
6.543834098162004 39.485327219478684 0.698619829684459
7.168976503716292 42.748441390144215 -0.756596723869115
nan nan nan
3.338958226829192 19.995702846058919 -1.773619364914844
2.085075366816062 12.500122490326072 -1.556027776596923
1.512354837811797 9.086178889636383 -1.458907820965193
1.174075494102683 7.069042406088649 -1.392905666248777
0.966740304937545 5.826980940725185 -1.363653291432510
0.820355978170020 4.955368758048822 -1.345859034533108
6.521266416560015 38.070958085026042 10.349655975559600
6.590307883646259 38.514413357516084 9.020987181297675
6.141408629488292 35.966516133044308 7.092370358146170
6.761915656688910 39.642150278830115 6.369385678578040
7.309898070474458 42.945166692055189 5.348845482051923
5.526073901772410 32.533965555835103 2.887121134258924
6.293991754494994 37.094185678347387 1.971809487409152
7.248468466567467 42.810078093394424 0.757888201945474
7.319840812600868 42.733011498798959 -0.756771247933488
nan nan nan
3.444582079550886 20.194076261546538 -1.792270693862843
2.131363773225179 12.508423161846764 -1.557977686091405
1.542406653886154 9.071107303195706 -1.457343476314791
1.197101789174943 7.055223104133246 -1.390997576295012
0.986748714850139 5.821649550864227 -1.363203389323822
0.837004100291022 4.948665395343086 -1.344823758352698
6.819856418027292 38.995641250076680 10.607439744481711
6.696871569227195 38.331842170658732 8.983645306276593
6.264220160353109 35.929386863444535 7.089317414220146
6.448776054745585 37.026126149861398 5.952644263710865
7.455001125329471 42.892007959087884 5.345433140436579
5.629049648622843 32.453622300586510 2.881717478208570
6.415252690954588 37.024759078394439 1.969297361509490
7.397859366099620 42.784515403037631 0.757888201945474
7.469651251570038 42.711139738872703 -0.756841057559237
7.499571093827870 42.970604828875366 -2.286034568691786
3.477446471452224 19.966016905894886 -1.773096430458358
2.171950892689260 12.483305705907007 -1.555784037910113
1.580819859246791 9.104593187512496 -1.463600854916400
1.221386643080153 7.049067025118639 -1.390615958304259
1.005069866240413 5.806648559490748 -1.360503976671696
0.854601886343584 4.947617218709937 -1.345341396442903
6.945751668278836 38.914544062170336 10.591910601775558
6.417402412715018 35.990706930691360 8.440163558981816
6.414707468126827 36.048402746979939 7.117175527545122
7.088928388470331 39.918066374642848 6.421321920971397
6.889321862761688 38.833441301126861 4.842600229546941
5.753414661841652 32.496555644220031 2.887295445744420
6.533130845881484 36.975746628682387 1.967831954734688
8.270141429342562 46.854481565216794 0.830490212724573
nan nan nan
7.638312717339599 42.881242795828285 -2.282685067492238
3.572575819162913 20.096956107058674 -1.785821168899516
2.224884115909837 12.528419945562714 -1.562364982453991
1.592942258749719 8.988150855412034 -1.445767325901814
1.244959254251209 7.038960896714848 -1.389471104331999
1.025332729022737 5.803104834849641 -1.360503976671696
0.873544399457879 4.954116471274342 -1.347929586893928
7.080020000510011 38.843212296663403 10.579487287610638
6.541250459361692 35.958500371109281 8.437914048438376
6.585390023579574 36.273046382934055 7.166022630361516
nan nan nan
7.061252152546539 39.010351536629422 4.867705314288401
5.890190340248338 32.605677669597497 2.898800003787110
6.682088955325224 37.026242457728330 1.971809487409152
8.391108623563746 46.589164380521510 0.826301635179625
nan nan nan
nan nan nan
3.635238775773504 20.043194519341821 -1.782160627704114
2.279220394276664 12.579175969071809 -1.569677143058300
1.633446199291778 9.033075817605607 -1.453901918083906
1.268127532135706 7.026844118074452 -1.387944632368987
1.048694952909003 5.816750789306303 -1.364553095649885
0.892542678439263 4.960543649665802 -1.350517777344953
7.284472155725854 39.265247338828040 10.700614600718618
6.657616140203637 35.921282224493012 8.434314831568875
6.907401545877998 37.341743908241369 7.381636795137013
7.338716706401855 39.712204982258257 6.396292406564959
7.201377841545466 39.045286089396100 4.875017474892710
5.999003658459492 32.589884755024165 2.899148626758102
6.756875229663700 36.779163203998763 1.959772217473275
8.545557722940979 46.561082298541812 0.826301635179625
nan nan nan
nan nan nan
3.685029732799819 19.940905470162651 -1.774142299371330
2.319119955080632 12.561788118168094 -1.568458449624248
1.671624818642734 9.072290966572689 -1.461097903475756
1.290712256300760 7.018738465347708 -1.387181396387481
1.066217630409451 5.803657890211154 -1.362303585106446
0.907245503612811 4.948055721690118 -1.347929586893928
8.167156288446284 43.182140980650388 11.775748914074487
8.300058675790806 43.926819315134928 10.320754373296527
7.036978800080763 37.313546586608105 7.380873559155506
8.843717270876629 46.938752184827528 7.565170729345565
6.080020986580660 32.332232400208113 4.039481256507019
6.129633329529530 32.658822874389521 2.907166955090886
6.865727022310872 36.651308280114350 1.954224606111523
7.671442258263405 40.991989183499705 0.727939872499095
9.834913073826238 52.000058268408573 -0.923755872725416
nan nan nan
3.757565192805585 19.943584354992829 -1.775536791255292
2.366626684878303 12.573124687416129 -1.570895836492351
1.710212684364455 9.103287490366649 -1.467042413147285
1.318822531006498 7.033486537589377 -1.390997576295012
1.086828488963381 5.801816161225773 -1.362753487215134
0.922736737583948 4.935363962275730 -1.345341396442903
8.339278616864016 43.223997905732638 11.795419161502279
7.897646522867102 41.011896904044910 9.642301993395430
6.968929835267350 36.257294771944991 7.176707934102604
8.464127676891659 44.119449222431015 7.115265207889861
6.188360449406930 32.287416921151781 4.036556392265295
6.209155319063092 32.457192420498693 2.891130298425317
7.662147816279764 40.090350860462507 2.139075203561600
7.879683032143507 41.306745015478796 0.734013309939270
10.040589696898149 52.091078559235939 -0.925989780749389
10.126790169043414 52.637150166996967 -2.809184787296253
3.860222404853643 20.102530920614246 -1.790876201978880
2.416858848448149 12.597929203384831 -1.575039394168126
1.744950694404302 9.112783301248641 -1.469545364587929
1.343734496352846 7.030768488651867 -1.391379194285765
1.108535951732628 5.805643710465580 -1.364553095649885
0.937788780972029 4.920726763654193 -1.342235567901673
nan nan nan
7.800269287913523 39.758304818497265 9.353914741726594
7.057341950019314 36.038155223710028 7.138164517036542
8.602260809563729 43.967935768458865 7.095867334224872
6.289612650889644 32.207170127525885 4.029244231660986
6.378830327718116 32.724747155165304 2.916928398278624
7.176358985761735 36.884795290328348 1.969297361509490
8.042137348051805 41.373209990904741 0.735688740957249
nan nan nan
nan nan nan
3.944906904122451 20.163235829837912 -1.797500038427702
2.444824921788331 12.507590681133061 -1.564802369322094
1.782423712750022 9.135719065979382 -1.474238398539136
1.367517713268176 7.022181040133280 -1.390615958304259
1.129166847597553 5.803651699266310 -1.365002997758573
0.957537595316879 4.930698247988857 -1.345859034533108
8.279834850733858 41.361381044740220 11.302627699627081
7.960769491512918 39.839759475064682 9.379559161921796
7.199992475319962 36.098015474024102 7.154955708629677
8.748016440637388 43.939167893002008 7.095867334224872
7.708655065398455 38.754026041453621 4.851618560958921
6.508930714563403 32.782405423610619 2.924075169183931
7.430092828283320 37.490367945426541 2.003001717329946
8.179516434944134 41.309576625995156 0.735060454325507
nan nan nan
nan nan nan
4.015265698084519 20.149342693637383 -1.797500038427702
2.477616527459353 12.444467761720530 -1.557977686091405
1.815457580471520 9.135254051007884 -1.475177005329377
1.390875357062443 7.011587537166090 -1.389471104331999
1.151691568808970 5.811144177086909 -1.367702410410699
0.973243505702188 4.919745277327844 -1.343788482172288
9.587765698999544 47.041317800155504 12.863824179685485
8.028300706414631 39.460358664687803 9.296777173923253
7.377140929267796 36.324704002211845 7.204947665418332
8.650155280930665 42.669327200082577 6.895631218973376
8.495670158492526 41.944880321848927 5.254762348943149
6.643459491098143 32.859081940562710 2.932965054944193
6.349096828125956 31.459672287280281 1.681972961735729
8.330778515146246 41.316057500782996 0.735688740957249
8.885712679738422 43.635689134286451 -0.777295277903733
nan nan nan
4.081613604958974 20.115678050994312 -1.795756923572749
2.531689683753504 12.488272403998911 -1.564558630635283
1.846159109150107 9.123052871050065 -1.474238398539136
1.408344870173250 6.972050809494900 -1.382601980498444
1.163102358484585 5.763153409850929 -1.357354661910881
0.988121607379801 4.904955220109755 -1.340682653631057
nan nan nan
8.140702648702884 39.309966209098050 9.267983438967239
7.428774445596777 35.935359835074117 7.132821865165997
nan nan nan
nan nan nan
6.758520265116473 32.837643235821766 2.933139366429688
7.867694198947759 38.294484117210402 2.048848014998765
9.373227034327924 45.662801561579400 0.813666092919032
nan nan nan
8.955511168832887 43.282568774790555 -2.316389423312694
4.170344002972572 20.191063412744853 -1.803775251905533
2.580481991988457 12.504632741914717 -1.567727233563817
1.877993259132533 9.116552992382896 -1.474238398539136
1.443350125625248 7.019013764040475 -1.392905666248777
1.184388977415043 5.764784921392263 -1.358704368236945
1.004072709015681 4.895798763855633 -1.339129739360442
nan nan nan
8.348192156856074 39.615010816232349 9.346716307987592
7.566291821594972 35.966845739545995 7.144270404888591
8.599498117318294 40.949206159775265 6.627189676964341
10.356071212708072 49.356506960171899 6.192181338415543
6.489971305861084 30.984684561031141 2.769635193035081
6.525240348497369 31.207353011359604 1.670877739012225
8.592842143867699 41.131615381584744 0.733454832933277
10.027882986794520 47.544587545866506 -0.848152048039104
nan nan nan
4.226045105290681 20.106190896833269 -1.797500038427702
2.606572523507623 12.412012210406143 -1.557246470030974
1.903724927909967 9.080941791481340 -1.469545364587929
1.460603588399693 6.979343512153819 -1.386036542415221
1.203706931180007 5.756800534129773 -1.357804564019569
1.020761392761558 4.890372973647343 -1.338612101270237
nan nan nan
8.491733887753043 39.610399629872326 9.352565035400531
7.709049753212106 36.020846121254820 7.160298360500221
8.706890601291081 40.752805854941904 6.600282948977421
8.343481707653586 39.085247161360357 4.907190981551668
6.559884450281453 30.782567259724445 2.753598536369512
7.336684958412806 34.457241402803568 1.846307864338572
9.495543775564441 44.673021152391193 0.797191021242236
9.272529575481325 43.215684853499404 -0.771501078966555
9.152879376689178 42.730753384977476 -2.290221445191222
4.318700634768719 20.196527294277935 -1.806912858644449
2.645320324056753 12.381483876050007 -1.554565344476061
1.917693464149608 8.991168548267943 -1.456092000594469
1.474735799222321 6.926197284904705 -1.376496092646394
1.224605578789128 5.756375909904807 -1.358704368236945
1.024983369797775 4.826309461394073 -1.322047682383676
nan nan nan
8.974515166647954 41.160843199886365 9.725983785611348
9.390162060115754 43.139514435140008 8.581825376055479
6.781524103763246 31.181308867821485 5.054084696519779
8.428478393426980 38.819217792776556 4.877454861760812
6.685866375842584 30.845157034801815 2.761268241731306
6.847733178040396 31.618582015672359 1.695475638446408
10.146693749369701 46.930317271976890 0.838099461931229
10.255959894850132 46.998667902681518 -0.839670178510584
9.216954523243182 42.308246070282280 -2.269287062694044
4.413731729527032 20.294248049891035 -1.817022924803177
2.678406912085597 12.325618862924195 -1.548715615992614
1.943622495406872 8.959323626974310 -1.452024704503423
1.502228188039738 6.936357468206996 -1.379549036572419
1.249637414305059 5.774922060958024 -1.364103193541197
1.053653728427459 4.877462716518787 -1.337059186999622
nan nan nan
9.167487440071136 41.351863553143978 9.778622332327812
7.977727326194403 36.044740925666247 7.175944698121098
6.857184549936096 31.033273803216193 5.033748216064549
6.704867986190811 30.369099144825675 3.818654006256891
6.772481429169282 30.726292413354429 2.752726978942035
6.981257307477879 31.699814292842930 1.701127921720646
10.353389835028738 47.089917490811096 0.841589943218686
7.405634474350069 33.377089185262335 -0.596767585716472
9.364581709422962 42.275815138618320 -2.269287062694044
4.469057301099816 20.208683667310360 -1.810747711325346
2.729552723772111 12.353022792411775 -1.553346651042010
2.001267387218161 9.072082475447036 -1.471422578168412
1.532765182387523 6.959831087184713 -1.385273306433715
1.272300814119292 5.781944073933484 -1.366802606193324
1.070258323858426 4.871868205139643 -1.336541548909417
nan nan nan
9.301065951615467 41.272084537594246 9.767374779610618
9.617840680419688 42.747294580278762 8.516950317627455
6.638129761468749 29.527785080082758 4.793464877762754
6.814312875984478 30.361005018726527 3.820603915751374
6.736803611281488 30.064774340453035 2.695552811699572
7.710638913222892 34.438943107816115 1.849552693625635
12.870672110503603 57.580077061498656 1.029866503864100
nan nan nan
nan nan nan
4.567102638587950 20.315424674835764 -1.821729334911551
2.780487324025246 12.378282562215091 -1.557733947404595
2.035083976482482 9.074678987923981 -1.472986922818814
1.560910643504493 6.971680745657809 -1.388707868350493
1.291624941271422 5.773664221847323 -1.365902801975948
1.085573431829756 4.860561025589120 -1.334470996548597
nan nan nan
9.503808368739406 41.495806409446679 9.828111564283461
9.791505198430087 42.820637614694057 8.538320925109627
6.741286831093030 29.528719830046800 4.797219304923720
6.961308994784379 30.517023714363766 3.843271613624731
6.804544254649739 29.877893091544379 2.680910646917965
7.194857951465525 31.617196803898842 1.699348499208386
nan nan nan
nan nan nan
8.146409188058071 35.597639382012957 -1.913821247891970
4.597160731915075 20.120663785190260 -1.805692678245982
2.837375108007171 12.428495733285366 -1.565289846695714
2.065431159812122 9.061741989228924 -1.472048316028572
1.587850586986213 6.977675562545807 -1.390997576295012
1.309178488786230 5.757719010496731 -1.363203389323822
1.102533342367670 4.856742054951876 -1.334470996548597
nan nan nan
9.675098933548822 41.576260683821857 9.855105690804725
12.084697153726850 52.013131292771455 10.379627730493285
6.830261006593690 29.421072686158155 4.783765940930261
7.051206130918183 30.420986799693768 3.834253282212750
6.897116739606751 29.803490442336823 2.676378548295087
8.995246566392186 38.900736790609891 2.092496202505380
nan nan nan
nan nan nan
8.148486206327949 35.043738679927380 -1.885559831520780
4.675026494062027 20.137487302276394 -1.808655973499402
2.867284151985124 12.360503352267505 -1.557977686091405
2.100615612488105 9.069872579489536 -1.474551267469216
1.621043623406225 7.010346059420373 -1.398629936110073
1.327513892666554 5.745519176728788 -1.361403780889071
1.125124984767407 4.877335291543830 -1.341200291721263
nan nan nan
9.812547001101759 41.509994952944432 9.847457354957035
12.211614756866268 51.739429565393110 10.333451953612160
6.905132609830521 29.302125375453599 4.768122494426237
7.094109466644102 30.127605735265782 3.800373604746119
6.998372439464674 29.767596380177750 2.675332679382115
9.080280918559366 38.653279896662276 2.080877620219447
nan nan nan
nan nan nan
7.723479461513819 32.698107229201568 -1.760790911837602
4.838129633171782 20.514701501281579 -1.844041205054952
2.915876746018368 12.373605377188689 -1.560902550333129
2.131810156864067 9.060561936180557 -1.474238398539136
1.647300333903845 7.012289757479518 -1.400156408073086
1.352460013577667 5.761719205212459 -1.366352704084636
1.140820772251518 4.867735497096064 -1.339647377450647
nan nan nan
nan nan nan
12.361024728783345 51.566664344443360 10.307501930240951
7.059877971734382 29.474486902379901 4.800347994224524
7.136436485518431 29.840091035510408 3.767225143339919
7.086041966917686 29.675159426052861 2.669231777389779
7.373511195950501 30.902906821046180 1.665016111913015
nan nan nan
7.229285220427785 30.089004155023709 -0.540151979233925
7.711773886784060 32.146565929605202 -1.732529495466412
4.858658871784061 20.284554188172468 -1.824866941650467
2.962747427961883 12.378796220429352 -1.562852459827611
2.169393133176188 9.078041953359326 -1.478305694630182
1.659009649439047 6.953026753385503 -1.389471104331999
1.370304190763894 5.747485093686247 -1.364103193541197
1.150647396646631 4.833654244772484 -1.331365168007367
nan nan nan
nan nan nan
7.828645948885952 32.187630821098601 6.439040357976881
7.145913437796263 29.425288065213042 4.795967829203398
7.242372440008208 29.845198277736287 3.770881223642073
7.165173385770591 29.572107293361686 2.662085006484471
7.616941943118221 31.460638240044503 1.696417685658781
7.797548504789724 32.255833768749284 0.579245369653440
7.745795855875153 31.774531562883954 -0.570868214563544
nan nan nan
4.948012711959233 20.359324320150595 -1.833059581468746
3.008933791368121 12.390122599563025 -1.565533585382525
2.203209072967125 9.086156037319482 -1.480808646070826
1.694068992523740 6.997098327054800 -1.399393172091580
1.399437082950617 5.784579586549706 -1.374001039932327
1.167577253532397 4.833567669264800 -1.332400444187777
nan nan nan
nan nan nan
7.941424684007631 32.162013659030414 6.439421975967633
7.203660929373777 29.217960215207178 4.766245280845754
7.379747467317348 29.954658062890065 3.787942931718794
