# This PCD file was generated using the MATLABÂ® pcwrite function
# from Computer Vision ToolboxÂ®.
# .PCD v.7 - Point Cloud Data file format
VERSION .7
FIELDS x y z
SIZE 8 8 8
TYPE F F F
COUNT 1 1 1
WIDTH 894
HEIGHT 1
VIEWPOINT 0 0 0 1 0 0 0
POINTS 894
DATA ascii
24.467364729101504 19.136639885867538 8.323102852406862
21.860016968059913 17.103507168610925 6.407955734039339
22.947385522199450 17.967192980188820 5.665119072729616
22.115605342823642 17.328387018492588 4.449934792534408
23.239992131206577 18.215932486700506 3.625612966303137
20.956564472883613 16.437952682251158 2.330195938101389
20.836781635611722 16.349872186666090 1.388054231475356
18.585405826368394 14.593783423943488 0.412470173738758
18.785079503446909 14.692358807946533 -0.416274798342086
nan nan nan
25.439898507376078 19.925927473323753 -2.827157983248536
15.528782115396687 12.167369703436909 -2.422275069520711
12.345784136619390 9.680331293492726 -2.484805042699027
11.533010486073518 9.049538007948030 -2.849541536953320
8.041604149148284 6.312225168049938 -2.360186462175832
6.330510186461270 4.972681041862272 -2.156997921884408
24.485454016637522 19.006558312923111 8.305503157339892
21.899579527580347 17.011556142542901 6.402107006626398
22.062904162713828 17.150778346349476 5.431950480379477
nan nan nan
23.389599980836085 18.201751465406538 3.639018594077704
nan nan nan
22.702488773832997 17.686136016219685 1.508217587009155
18.429638258227712 14.367756859840679 0.407897643252190
nan nan nan
nan nan nan
25.421220996582047 19.768512229780718 -2.817396540060798
15.361204294363519 11.949761970401942 -2.389614085488132
12.318708790280498 9.589853146998090 -2.472603154425889
11.195926099112299 8.722068923327665 -2.758716455154085
7.968289179808848 6.209847268229995 -2.332292531437192
6.338689371653030 4.943424915979475 -2.153892093343178
24.502448345691597 18.889871781020975 8.289974014633740
21.873955031712541 16.869553645812886 6.377362390648573
21.931469202991902 16.926121649478059 5.385011467516848
nan nan nan
23.451422589307505 18.118781970361383 3.638774855390893
nan nan nan
21.481246823232681 16.614575058726523 1.423223994070614
nan nan nan
28.522416923425190 21.989018850969728 -0.628635679870952
18.987192949558811 14.648520900837608 -1.256795653218053
15.767477010935277 12.173308940887440 -1.742766231982173
15.047760123153427 11.621842580242181 -2.334529142269005
12.205189910386823 9.433242756079022 -2.443193474998326
11.449928950518769 8.855896751753427 -2.813669445822530
7.898982419540894 6.111636563183140 -2.305748307024616
6.268839314663572 4.853854004959601 -2.124386722201490
27.294868313918005 20.883603729088140 9.208781624747688
22.300960366057570 17.075054682400765 6.484439092516253
22.125998570679847 16.953347145963814 5.418212232712366
22.439937407338537 17.200109542434323 4.478092996241649
23.823243805046161 18.273612700231006 3.686547638005711
25.549668982976272 19.612036322000751 2.817919474517284
20.994178612365051 16.121046175296954 1.387216856175469
22.490359884644096 17.282419456892061 0.495089865812859
21.342062667489273 16.334952919425071 -0.469120685034181
18.625956081515685 14.266391510194882 -1.229580955971722
15.843081104456392 12.143649313264337 -1.746426773177574
14.864543457815207 11.397723800822112 -2.299918248741943
12.186327048654075 9.350897628770264 -2.432868800305670
11.292358449717270 8.671195732738838 -2.767493668941406
7.918722470930799 6.082839607672364 -2.305298404915928
6.347008798795854 4.879037053043884 -2.145092245809692
26.003858936883383 19.766631906575174 8.752224829186842
29.645003181652694 22.542584245052048 8.598079199131208
22.072732474418096 16.796659070572058 5.391498973359650
22.399568199697910 17.057720771860318 4.459320860436821
30.591677331947459 23.304612980823240 4.721949579575845
25.555938917200866 19.482509766019717 2.811469949553957
42.191921083570001 32.176556662281662 2.780818699012577
22.703332155983329 17.326635341552041 0.498510537474566
18.836221769486894 14.318208044882200 -0.412993745931877
nan nan nan
15.880093157558301 12.088631370036936 -1.746078150206584
14.927526713088465 11.367611206442048 -2.303818067730908
12.020874886186084 9.160768698746772 -2.393760184045613
11.317928894483614 8.631320191647767 -2.766730432959900
8.005472244321449 6.107372553669125 -2.324644195589501
6.309410521290623 4.816932695686543 -2.126974912652515
24.065056370704802 18.154084004938390 8.077224759559467
26.149410726155015 19.740795581765124 7.564204153366804
21.869627123407231 16.521875602613139 5.327768768903884
22.499760086901247 17.004091987849101 4.466829714758752
23.649419278738428 17.885915323650217 3.640724764885376
25.682570963490821 19.437672251079722 2.817919474517284
31.039692292024618 23.500693401520614 2.040369590087408
22.779613800315495 17.259356599315268 0.498859585603312
19.123918777941697 14.431849773404803 -0.418194563050187
nan nan nan
21.679424840808046 16.384127333489769 -2.377434350670620
14.034442480727899 10.610315468959028 -2.160255981199644
12.637222682058328 9.560924086092818 -2.509834557105464
11.599992486776754 8.782557002400679 -2.828170929471147
7.978584834732955 6.042917039412513 -2.310697230220181
6.243048310505634 4.731865649278094 -2.099022455781443
23.973650528293010 17.954167228770334 8.025460950538962
22.269557206327793 16.684017927869217 6.424152209952097
21.854637196674275 16.385079736200950 5.309451105347736
22.587420030583274 16.946788657015905 4.472461355500201
23.892633043302361 17.932576331292264 3.668023497808129
nan nan nan
22.158221058316276 16.648961107029045 1.452532129566663
nan nan nan
19.200694571116198 14.379640715606476 -0.418718135243306
nan nan nan
21.828588978290082 16.371502663428849 -2.387195793858357
16.043775954834157 12.037252594539323 -2.462735691531221
12.624789986034614 9.478960447293909 -2.500448489203050
11.643091262270355 8.748237192912022 -2.830842255406419
7.981986465538679 5.999582929525135 -2.305298404915928
6.366875824644472 4.789079616062495 -2.134739484005591
23.754017796572587 17.660595544322895 7.931250818121646
23.256480256192546 17.296990709181106 6.691394062512609
30.179967029264088 22.462695595048036 7.312945556801457
22.966450373710568 17.106196936174438 4.535660879376453
23.955083854155003 17.849066226554527 3.668023497808129
25.821005291625848 19.253395533384925 2.817919474517284
22.070516521839011 16.462843475503902 1.443006985530447
23.731013093049526 17.714337425147672 0.516905373859463
19.250771907128545 14.312530178236443 -0.418718135243306
nan nan nan
16.020677041254107 11.928400836029056 -1.747472642090546
16.044303733927418 11.950345608937857 -2.456398485674153
12.659384627105078 9.436014491970846 -2.500761358133131
11.218763888807574 8.368302287230982 -2.720554656078776
7.962272387643861 5.941382760495251 -2.293600950090048
6.399033078019389 4.778384638926664 -2.139915864907642
22.694844564828990 16.750431634297250 7.558033755083811
26.314199131347422 19.428871747721214 7.551606894323548
21.835857929518856 16.134105876896328 5.277395194124477
23.254565443841141 17.188637569059853 4.580088267447880
nan nan nan
21.599535081962600 15.988649924765310 2.351113316360827
22.525911820379772 16.680469437885776 1.468965619826947
20.956986909303090 15.530007954577977 0.455298379135852
19.109153095803741 14.103932794350563 -0.414564462511233
19.142001938733294 14.138502012302398 -1.247165837269351
16.156748082408125 11.942278076697701 -1.757757019734770
16.068362913821254 11.881285300268786 -2.453717360119239
12.233336430971072 9.052192776646518 -2.410342237339877
11.217928779026236 8.306892064881206 -2.713303914254467
7.967304165138491 5.901953295206666 -2.289101929003170
6.421881483327714 4.760620590041813 -2.141986417268462
22.843363166759605 16.731062732836307 7.587021488135293
23.382955314903942 17.138817789579178 6.693193670947360
22.138999745000490 16.238928353679846 5.336927600681958
22.129511025896978 16.237909490533969 4.347313783468016
33.167376687369298 24.354949051835455 5.052459238890604
24.625420880532925 18.095787943526105 2.673589564527162
21.764899808295720 15.999608273570360 1.415687616371631
19.690226034196815 14.485083705112649 0.426676432578707
19.392161739516272 14.208515523220347 -0.419625660378045
nan nan nan
18.855222900768830 13.835344239112830 -2.046068216744023
14.301453509961799 10.497778082022592 -2.178292644023606
nan nan nan
11.264257100656311 8.280474649122525 -2.717501712152751
8.022395978317917 5.899505301277852 -2.298999775394301
6.393337904047681 4.704968880408672 -2.126974912652515
22.908093605895790 16.662037410237605 7.590127316676523
27.079501415778534 19.703308437637563 7.731567737798639
22.460594477127234 16.354540868084520 5.400657805137724
22.187653780651384 16.161727203529459 4.347626652398096
28.356358218389499 20.670232213804436 4.308568766745584
22.113036035138226 16.131015697223294 2.394691187734656
19.949125331502962 14.557821552001609 1.294268197888001
22.418190400696325 16.371611032528875 0.484548612324739
27.152316185428017 19.749042231072664 -0.586051808163980
nan nan nan
16.083513349068770 11.715405233547083 -1.740848805641724
16.051448438809338 11.696337287009385 -2.438605561537001
12.283465352230358 8.957256997197110 -2.407839285899233
11.285163296539531 8.235318126794450 -2.715593622198986
8.041366258761258 5.870316956730250 -2.298549873285613
6.403482669140283 4.678064895406368 -2.124904360291695
22.869007096030192 16.511857684668154 7.558033755083811
27.293451408930114 19.713638394323290 7.772958731797912
22.851681069255672 16.517557511964544 5.480797583195873
22.752970037962530 16.452254292315118 4.447118972163683
28.389740983685030 20.543194779708699 4.302719038262136
22.449995381440591 16.257058610022796 2.425021386210841
21.785489412881446 15.781656621571841 1.409825989272421
22.484915513833585 16.300299383056004 0.484758041201987
18.801843660472652 13.575288399162543 -0.404791114906354
19.049412819160516 13.764156546327936 -1.231674394221440
18.788284035398565 13.585462739628415 -2.028462756708996
13.840399385957951 10.011417384547796 -2.097371400002588
11.860218166648053 8.585366147289317 -2.318984509756382
11.272503356310985 8.165929801403822 -2.705671554439405
8.052340725447149 5.835350503929845 -2.295850460633486
6.401006457038563 4.642074274106196 -2.118692703209235
22.935926115652556 16.438681741984844 7.561139583625041
27.216395432364941 19.513779233786984 7.731567737798639
22.641217725009675 16.245409176071966 5.416685760749354
22.279498013485426 15.997653707175761 4.344185094167211
nan nan nan
22.208934138861675 15.964616498250299 2.392948072879702
22.716464739212402 16.341478540766392 1.466558165839772
23.726543575758885 17.074380883798220 0.510238554600421
19.881209226508567 14.249299089664797 -0.426955671081704
19.405704589139464 13.918750583836296 -1.251562057593759
19.358397916847615 13.895056079754848 -2.084765366523984
12.183785635510601 8.748490801784843 -1.841689517538589
12.478845137060256 8.966959883395971 -2.433807407095912
11.190958164239277 8.047444128196013 -2.679339913077442
8.074242786446334 5.808345037064303 -2.296300362742174
6.401492917668739 4.608415473932238 -2.113516322307185
24.412906563970974 17.362178363125338 8.027013864809579
27.233539541537361 19.382498130989088 7.717170870320632
22.389158352245438 15.946459965098285 5.343033488534007
22.328329987097373 15.909010222433153 4.342307880586728
22.974025907229230 16.381164354953633 3.464501694321533
22.248307413916763 15.875422894038888 2.391204958024749
22.550249013462757 16.096815708787020 1.452008770004233
24.261133950172471 17.330866431770701 0.520430759959794
19.956897848096350 14.198361734152018 -0.427514148087697
18.386852579723111 13.091020213466697 -1.182897283003016
16.523350251533170 11.772942634419437 -1.775013856798806
13.879240977911147 9.892658471915810 -2.092740364953193
12.487555055521945 8.907286456086011 -2.429427242074786
11.086353630713322 7.913659453139278 -2.647665619844936
8.056406739098206 5.752946011135744 -2.285502712133669
6.376674248058544 4.556838713030587 -2.100057731961853
24.553982421876274 17.340190415032911 8.054448683590445
38.311847565656478 27.066111676849562 10.829593658222350
22.470334719910877 15.886343868466525 5.349139376386057
22.535327766972660 15.938193247999406 4.371717560014292
22.792881507433712 16.132288001653542 3.428672107360419
25.275664841500749 17.902792060471761 2.709846353510188
22.786000561016237 16.151306169926048 1.463732024202653
24.370418740295015 17.280774034109591 0.521477904346031
22.753779024240419 16.068874456405226 -0.486224043342719
nan nan nan
21.847757570246639 15.451906703587790 -2.341177561687594
13.973647067369063 9.886572410034800 -2.101758696365173
12.212257167960363 8.646760057633029 -2.369982145359498
11.134734479980430 7.889668174028879 -2.652626653724726
8.060540683512505 5.713519585235591 -2.281003691046791
6.383087642885495 4.527845940177639 -2.096951903420623
23.872450369469384 16.734304553151265 7.811676419284281
22.923033160368497 16.074741847384800 6.463743595516617
29.921174680416637 20.997762188371514 7.105345369831776
22.563340428356170 15.840138078201464 4.366398788202924
22.797077178515998 16.016110753394720 3.420872469382490
22.329257986699034 15.699088256620517 2.388067351285834
26.212058811882020 18.442654823262181 1.679670179661039
19.698186366399820 13.864671955157027 0.420463375887034
18.917503590333386 13.260945632578892 -0.403255303139873
19.955889226072038 13.999233053225957 -1.277520691890259
19.572961426540406 13.740802811540910 -2.092260760400282
12.848178766802695 9.023152787275121 -1.927729273982623
8.782180148728354 6.172219585679679 -1.700129766057229
11.175053459574112 7.859788168283051 -2.655679597650751
7.983215251511319 5.616944640635583 -2.253559662416840
6.389376443343749 4.498863998828610 -2.093846074879393
22.777870340771347 15.848726278696681 7.435353527705217
23.052976178833745 16.052089231394088 6.485338896733628
30.187153322392810 21.035360351906807 7.151902764703652
22.582206446036498 15.747706706483491 4.360454278531396
22.701908146603955 15.837070483537710 3.398692248882753
17.375649112750111 12.130439866030560 1.853976959728185
20.826818372357483 14.545207529318663 1.331322054908005
19.068764361551484 13.327308304804109 0.406082592982713
18.910495670457756 13.162725636106426 -0.402173253940761
18.920559556019747 13.179537379935104 -1.208437229649573
18.966270525874403 13.221213585098782 -2.022710477687651
12.264170158021379 8.552421797597439 -1.835839789055142
8.765341712065213 6.117061703547852 -1.692933780665379
11.147939925304815 7.785591483005827 -2.643086203955899
7.998602848559669 5.588208302691475 -2.252659858199464
6.391594055664445 4.468795650428974 -2.089704970157753
22.852129182044752 15.782293985593304 7.441565184787676
25.794081567917239 17.827386851219643 7.238924928785575
30.379881573405793 21.012502214698181 7.180142496019381
28.309056755674206 19.587504113512797 5.452366844512206
22.742363245034714 15.747558899281092 3.396498600701460
25.095119505674472 17.389647579158357 2.671149203730228
20.779745558663233 14.410050939591267 1.325251083983824
24.709732614189797 17.141751455903172 0.524933480820613
18.768770857847144 12.967055870171672 -0.398194105273061
nan nan nan
13.625158012378050 9.427471954226219 -1.449574313379051
19.304372596161162 13.361997234195812 -2.882697448905359
11.933658018532244 8.266338393772958 -2.299273767161313
11.141165452459221 7.723142283028428 -2.635072226150084
7.925181133790309 5.495845149836026 -2.226565535895576
6.359540890229643 4.413414811946939 -2.074175827451601
22.991531980644449 15.760319163319526 7.469000003568544
24.485407869918603 16.796912821774740 6.855158430074942
30.495126144683962 20.935218579907467 7.190064563778962
28.206155651565432 19.378306302744484 5.420141344713920
18.059434789244182 12.411905653755065 2.690631363698846
25.497117757187386 17.536790894195558 2.707405992713253
33.978384480386161 23.387639735242079 2.161789008571037
20.396600301231569 14.044417766660665 0.432261202638638
19.486788090016244 13.362874357103985 -0.412435268925884
19.054924611055945 13.076509728207462 -1.211158699374206
16.895102374087170 11.603001018518944 -1.793142251290319
13.277460865570200 9.121934472535695 -1.977939443465544
11.968951277823402 8.229108391311538 -2.300525242881635
11.098508738567375 7.636352905156718 -2.618662652547701
8.141761057106944 5.604050260952162 -2.281903495264167
6.344679925005607 4.370367273825228 -2.064340703737706
25.113218978744410 17.086155138924259 8.138823692293867
23.190811627502214 15.790061605516019 6.477240658777249
27.186894330950889 18.524790285541929 6.394772671049523
25.412643828991495 17.328831785125342 4.871682110282870
23.615931554047979 16.109696254434066 3.510080828755057
18.971170837353572 12.950961343500072 2.009637116275502
23.624018691852960 16.139391719561313 1.499425146360341
20.257290658455823 13.844506118351958 0.428282053970937
20.105295448835488 13.684073231065515 -0.424512334180484
19.863085618652821 13.529368142048670 -1.259517122942686
19.204104666958386 13.090331479368672 -2.033343478302865
13.348583306194685 9.102372670839095 -1.983789171948990
12.330462151027362 8.414424866465570 -2.364350504618050
11.160764723511361 7.621923625058880 -2.627058248344269
8.164491408368432 5.577794648295529 -2.282803299481542
6.347138632151405 4.339471027264181 -2.060199599016065
25.155333222653610 16.993050198003818 8.134164949482022
23.252246450871329 15.713378892007512 6.479040267212000
27.249766015355725 18.428677629415684 6.394391053058770
25.577677075504006 17.310879543006113 4.891705721808020
18.119345018569401 12.267718846823360 2.686731544709881
26.087363040271395 17.675756231359177 2.756910454593923
23.620701276985809 16.016477935203181 1.495656957510849
22.518080787718439 15.274562394252731 0.474949788784234
18.973125708886545 12.816816009966377 -0.399660107413792
19.867170473221819 13.430867361194334 -1.256795653218053
nan nan nan
13.324380198057623 9.017892434598515 -1.975502056597441
nan nan nan
11.117422195922675 7.535553145899399 -2.610648674741886
8.116169530767706 5.503327301063832 -2.263907410916657
6.362247543893448 4.317288941272733 -2.060199599016065
25.374714929918031 17.006138212670034 8.184893482322117
23.245454525502399 15.590869116589255 6.461943987081866
33.099147163377815 22.216556423488768 7.748753302241484
25.657624843888964 17.234708970566011 4.895460148968985
18.682714675085389 12.554263255627220 2.763752969741935
18.715578743067809 12.585832127086853 1.973206015806981
23.802395144565505 16.018677731531902 1.503612022859776
22.606096526669635 15.219318700596666 0.475682789854599
24.023818670631176 16.106844309683087 -0.504863213417737
18.955303391335327 12.718235527258329 -1.196295287801210
19.789598234226606 13.288033391736413 -2.085462612465965
14.270330878166890 9.585649532850905 -2.110777027777154
12.210210945726317 8.208014978805151 -2.330247791239279
10.863478764794921 7.308214234055431 -2.545010380332355
8.007609476223301 5.389008745570236 -2.228365144330327
6.369267276705142 4.289658453680907 -2.057611408565040
24.216677981519808 16.113903051600744 7.794076724217310
23.684197859468153 15.765552625005729 6.568570786840858
35.016275831801806 23.326472988213030 8.178455159829463
25.747213942844382 17.164765464469159 4.901091789710433
34.998709314144179 23.341237592641754 5.165310250883770
25.132952481621246 16.774273765410765 2.643607989021968
23.950643219801432 15.991218046540714 1.509264306134014
22.467875254600290 15.012554284559547 0.471668736374024
24.076566056596985 16.020671850512699 -0.504793403791988
nan nan nan
19.336814894275701 12.886302715003689 -2.032994855331875
14.250849765680325 9.500542250524559 -2.102977389799225
11.627505774824451 7.757514738941945 -2.213860549249347
10.764832718421298 7.187397250880086 -2.516007413035120
8.032853870672467 5.365353657304116 -2.230164752765078
6.329595162984392 4.230898401228193 -2.040011713498068
24.402943099407004 16.109115279763795 7.834970133343508
24.880512883092916 16.436845891235055 6.884402067139645
27.023640260194785 17.866215992424493 6.297078465416732
nan nan nan
nan nan nan
25.217929166490535 16.704045247073374 2.646396972789893
23.826506943625855 15.788368107056840 1.497959739585538
22.238494368433575 14.747263159553784 0.465769822998222
19.707022437146506 13.014136026590485 -0.412225840048637
nan nan nan
19.863603296338955 13.137463208056772 -2.083545186125516
12.868446569211541 8.514209443040794 -1.894580812576423
nan nan nan
10.984606758108793 7.278826704167066 -2.561419953934737
7.697441458376658 5.102556994938597 -2.132086093071152
6.310518841480024 4.186351332694380 -2.029141313603763
26.936277746188825 17.646756415775851 8.628509325627837
25.139436501244599 16.475863830746530 6.939290124399547
24.501694134504973 16.070129824212138 5.695648511989862
nan nan nan
18.244497740983892 11.979837285749351 2.679906861479193
25.252342164409264 16.593998192478427 2.643607989021968
24.211326596870506 15.915969740317273 1.518475434432772
19.743071108461486 12.988513339347284 0.412505078551633
26.405245223420849 17.298861221553356 -0.551007376037915
28.690401440398446 18.810251433652258 -1.797949440770092
19.844988036369404 13.020851414061113 -2.076572726705704
nan nan nan
11.865984028790212 7.794494629889659 -2.248589000488279
10.773334925067228 7.082142813762084 -2.506085345275539
7.716091562443708 5.074310188756458 -2.132086093071152
6.303227984617289 4.148325455974182 -2.021894380340892
24.133694458134791 15.684584157947763 7.712289905964913
26.266809144313001 17.083948388085904 7.233976005590011
24.603711367791529 16.014492727334570 5.706333815730949
29.215706795999655 19.023688993393378 5.521823746990069
26.608547357867081 17.339276927587402 3.899575250277909
18.629617716282684 12.149128770949124 1.945839112584216
24.417284638137037 15.929575669142126 1.527895906556502
nan nan nan
20.319363994310869 13.210680477085614 -0.423046332039752
19.431191517045306 12.642885148737909 -1.214926888223698
14.096697569394969 9.179007451937238 -1.471711872036956
12.975616147646331 8.452245070361736 -1.901405495807111
11.017725101233253 7.182364634246947 -2.083081336475714
10.771682092747639 7.027330332725251 -2.499979457423490
7.781083421892168 5.078231985955457 -2.145133254223097
6.312817660258165 4.123128611723097 -2.020341466070277
24.462026323099195 15.788881574045776 7.801323657480180
25.285380505524088 16.326563384365741 6.948738068681990
24.689660969866704 15.954126354575381 5.713966175546011
29.255422172714731 18.918939200647387 5.518069319829104
26.789237666273923 17.330735072645151 3.917611913101871
18.811963354300453 12.179321837375143 1.960655588851318
24.387832623861410 15.795316287636636 1.522766982844694
35.023956114158935 22.701393644682305 0.728533254317963
26.596307523755858 17.166441743338037 -0.552543187804396
20.050137198175261 12.951168534022207 -1.250934026118844
14.063476106241653 9.091108670406850 -1.465088035588134
13.346957143736741 8.631229767434604 -1.951615665290032
12.184104686015402 7.885267670637914 -2.298648029301153
10.727365353586977 6.947814154143271 -2.484333119802613
7.462611045543503 4.835173247536341 -2.052903321942112
6.352390477843446 4.118988370965591 -2.028623675513558
27.223718499406701 17.430385290961798 8.661638163400958
26.267630220127138 16.831166545998560 7.202482857981870
24.649346865306313 15.806379845406605 5.691832332082332
nan nan nan
18.166432768012726 11.662642560371671 2.650658219061957
25.643139910610302 16.475246424245494 2.666617105107349
34.841267396962039 22.393466420938331 2.170581449219852
nan nan nan
26.672906510244854 17.084284253991520 -0.552892235933142
28.889300259813471 18.518132912716229 -1.798368128420036
16.298692831339501 10.455542465993712 -1.694133327528979
13.194902097913669 8.467724856932264 -1.925048148427710
11.920685140831404 7.655882226400824 -2.243895966537071
10.744946219528630 6.906080356387468 -2.482806647839601
7.448299626628584 4.789069696955452 -2.044355181877045
6.378101790760483 4.104106857763504 -2.032247142144993
36.709934151226030 23.332798544770615 11.655139239056714
26.204531598467831 16.661996788715371 7.169190101938978
24.866692970480820 15.823532161360152 5.729230895176134
nan nan nan
27.013376215945858 17.209418631183564 3.932723711684110
17.767578392192071 11.327916951641159 1.843518270598466
24.374584160090773 15.546270949301505 1.515125933233224
nan nan nan
45.279655073966289 28.779704852242872 -0.936496129424633
nan nan nan
30.987761889126048 19.726178081399464 -3.213780858077147
16.353825704559206 10.414523737577879 -2.380595754076151
11.860713344717464 7.559018314158734 -2.227626782172888
9.795706714994640 6.247766514948074 -2.258415269276784
7.379544614660176 4.708534470334383 -2.020960272225283
6.449376614805884 4.118207231164290 -2.050364475302169
27.281008096634473 17.199723204930962 8.641450277882962
26.335049738938221 16.616178937738553 7.188985794721238
24.966596261341380 15.764936216728696 5.739534580926468
26.477430382550558 16.725403493890614 4.960224017495641
26.965896666113050 17.047132226492927 3.917124435728251
18.005690795258367 11.391524153749938 1.864087025886913
23.746892552961413 15.029571014776247 1.472838480588925
38.912097917570158 24.646761404658093 0.803997459752777
38.827416590410976 24.488802001616808 -0.801274884348561
nan nan nan
14.156220662057821 8.942276463410368 -1.464913724102638
12.736838715574226 8.048784131234353 -1.849976632890139
11.835271669056826 7.484839650419010 -2.217927845340393
10.477703768789150 6.631410510389785 -2.410299229596514
7.402521381576816 4.686916220767155 -2.022759880660034
6.398439006367542 4.054309660300123 -2.029658951693968
26.570237844933580 16.635185406647427 8.399713289757209
27.793817755647037 17.408001649524483 7.571402587105808
24.948871243972555 15.638264339806282 5.723506625314839
27.374903409348804 17.172244536463278 5.118222827186274
27.314847732255799 17.141215715547634 3.959534967233242
nan nan nan
22.856305439617579 14.359978857322343 1.414640897246772
23.774695540943750 14.948555005951992 0.490203192010419
18.101665289699522 11.333152530309180 -0.372783401500376
nan nan nan
12.786459824387347 8.017821643358037 -1.320409502627021
13.212450674152375 8.288154683498147 -1.915054862268488
11.681014251966490 7.333169604113260 -2.184450869821784
10.406543032837728 6.538140572375253 -2.388928622114341
7.528567436985374 4.731821667975508 -2.052903321942112
6.442918311545614 4.052612434853157 -2.039494075407863
26.615015782590763 16.534181158385255 8.395572185035569
27.986825189524769 17.393167763245309 7.607394755800827
24.978300335265292 15.535528098424917 5.717782355453542
30.094462607090161 18.732153187423666 5.614432950293886
27.350923873019827 17.031074571598481 3.956122625617898
nan nan nan
23.833390773207768 14.858074610829908 1.471896433376552
20.559123109502828 12.826817369472188 0.422976522414003
24.001306766404927 14.910453458130073 -0.493205005917632
nan nan nan
13.656818973614577 8.497314452199102 -1.407216622403689
13.320509734909407 8.291287076517015 -1.926510580548571
11.134794657382365 6.936193095842172 -2.077762564664346
10.216051098697697 6.368831480879190 -2.340081519297946
7.645903790661484 4.768418409170500 -2.080347350572064
6.337390075779448 3.955428438993177 -2.001706494822896
29.185404567327971 17.990108059111609 9.186523186868872
27.893106815579912 17.200244503225409 7.565553859692868
24.947170621792900 15.395659290587794 5.698319837925134
30.156193827735741 18.617574803328633 5.613181474573564
27.435538133920211 16.951149338683546 3.959778705920051
27.516892416839337 17.014689178969608 2.830469901472946
23.803579190433663 14.724356954640442 1.466872181577230
17.859549350915433 11.056135671172470 0.366640154434452
39.336272073791669 24.247180936540143 -0.806580415905495
27.141337141187556 16.743205859172232 -1.671296426662168
14.966370882715205 9.239810933534885 -1.538821793952653
12.668728325072752 7.824366085756002 -1.828283889764023
11.069882223106847 6.842237825893751 -2.061180511370082
10.054560049395734 6.219523963382283 -2.298103540315106
7.577989204906403 4.689402009768502 -2.057402343028989
6.374152079738860 3.947522690009930 -2.008953428085766
29.140714137527493 17.815503863397275 9.151841434825133
27.854902150783882 17.042768433837459 7.539009635280292
24.650829248533292 15.094214058100674 5.618561677857739
27.217595381055187 16.672430352495233 5.055336172240101
29.029537796809940 17.796293634703748 4.180849694856989
18.694291002224833 11.469344642896676 1.918820832332442
18.016236580273723 11.057672329751762 1.107847521750635
33.802474461938509 20.762904921345488 0.692441677805661
39.465025105713629 24.136851091856780 -0.807487941040234
nan nan nan
14.279867129647361 8.747285968092807 -1.465088035588134
13.325599104510077 8.165937633680549 -1.918954681257452
11.573617306137498 7.097880053731306 -2.150348156443014
9.181029341342011 5.634962310472401 -2.093937915262203
7.556116351976842 4.639469060399604 -2.047054594529171
6.401060190922673 3.933339908292434 -2.013094532807406
29.009470993418354 17.596452399285834 9.091277778271143
27.912181920522908 16.937527778016253 7.537659928954229
24.659001226201681 14.975228916407525 5.607876374116652
27.367996594897480 16.626920697927588 5.071918225534366
29.081000050704414 17.681525178412265 4.178899785362507
18.623867168295607 11.332394818726998 1.907316274289751
18.078822381373289 11.005065849244962 1.109208256612952
29.093231377066473 17.723754602879115 0.594638392131124
39.508772655110086 23.965078078727462 -0.806580415905495
nan nan nan
16.782559482435101 10.195933949901399 -1.718014001041838
14.142550118470998 8.595424786053256 -2.032049431937429
11.709255028344220 7.122138084053799 -2.170684636898244
10.293338570657506 6.265832275412512 -2.342371227242464
7.581392158227253 4.616811196930502 -2.049304105072610
6.252119663953278 3.810321602254706 -1.961848361877107
30.141647938734938 18.139581272331149 9.426189622633805
31.874472188051090 19.189993093237298 8.589531059066141
24.830517958562236 14.960999328411729 5.634971251460121
43.311927897974371 26.106809282032827 8.009757478989901
18.253821430148449 11.011409077172194 2.617509757655758
18.601907453027604 11.230246034442134 1.901041060811920
18.199190133846727 10.991454152626631 1.114232508412274
23.656285571939112 14.298554929900332 0.482489228365140
39.609319228488275 23.837331878710401 -0.806929464034240
nan nan nan
13.040129914404201 7.860102313852512 -1.332088372155207
14.243865410516444 8.589058632675176 -2.042286456783461
nan nan nan
9.484961485593500 5.728470252884515 -2.153851939810438
7.492381498199604 4.526830575968508 -2.020960272225283
6.037249432795599 3.650529967010179 -1.890414305428812
24.959770288841682 14.914457537268470 7.790970895676080
24.186797820883449 14.458304935020619 6.505584491624576
26.857008059438922 16.067221989273055 6.083372390595001
43.389197599865049 25.978185478736400 8.009757478989901
18.298542548718466 10.960128888928116 2.618972189776620
17.550245792322876 10.520253415883850 1.790178956036899
18.481776901406288 11.087418244018016 1.129514607635214
27.702994637846313 16.625902577848635 0.563957061614379
39.735508376460459 23.743549942341946 -0.807976608420477
12.705174837606480 7.597868051376330 -0.775828215345399
12.832253242023731 7.679945133146808 -1.308382010127844
10.019690812925646 5.999036644516863 -1.433914694504965
11.297031591361055 6.769170279646561 -2.085897156846438
10.245431337264410 6.143913826887863 -2.322145473732550
7.436379901599230 4.461164888543077 -2.002064383660398
5.945999528210217 3.569892662749445 -1.858320743836099
25.107337016173997 14.878026448465823 7.819958628727562
29.010792672366087 17.204809332986365 7.786905697167231
24.304531284411734 14.425237804652673 5.493772594881478
nan nan nan
19.184835586831859 11.400181356287060 2.740110317121336
18.720503301744326 11.133105724074550 1.905573159434798
32.123497429362956 19.111472658846310 1.958934842173387
23.248883545027457 13.842622346644127 0.472297023005766
27.792543504642879 16.475772333192406 -0.563957061614379
12.695547166999242 7.532071600220734 -0.773630105183196
14.551585696528846 8.640099313745464 -1.480601757797217
12.933442435712127 7.682369590566016 -1.847051768648415
10.930050697336377 6.497532169488045 -2.013937302927932
10.150396076153511 6.038851078169034 -2.295813832370587
7.410042322271268 4.410263158563430 -1.990816830943205
6.023153957254842 3.587671352931806 -1.878508629354096
25.121566580891908 14.774119857240667 7.809088228833255
29.065633093849083 17.100473407693201 7.785555990841168
25.026369814528884 14.735775540830600 5.645274937210455
36.687518572774842 21.610599980129432 6.743889787884353
36.446543370368360 21.485794794853415 5.194802631987816
18.845050762474834 11.118311760503000 1.914288733709564
18.149410130833360 10.716436011781420 1.104602692463573
23.279844128023456 13.751214000368897 0.471947974877021
27.849885360968734 16.378657875832044 -0.563957061614379
12.809545427836696 7.539377308935398 -0.778968372719976
14.609123831029590 8.605431586938689 -1.483390741565142
14.430984403628184 8.503892392997185 -2.056667039305269
10.748482691344773 6.338923127757459 -1.976393031318277
10.149434309251648 5.990410057569717 -2.290852798490797
7.460631016946925 4.405177596642496 -2.000264775225647
6.072230291869465 3.588246628826579 -1.889896667338607
30.435850681027489 17.756782931556785 9.441718765339958
24.341925035754890 14.207180188103120 6.506934197950639
25.031883376768505 14.621591486807398 5.634971251460121
nan nan nan
19.892835946850525 11.633751696262392 2.829562415180714
19.795090614988403 11.585863097776643 2.006673821022082
18.602038689360164 10.896301568943260 1.129828623372671
23.060282391532009 13.513161827282648 0.466537728881463
27.984613316487110 16.326690168518052 -0.565527778193735
27.868934372357486 16.272243092854264 -1.691288761946973
14.878183988619378 8.694108753728765 -1.507620038048991
14.503424235035617 8.478512873818522 -2.062760506475526
10.763724141424097 6.297375202628009 -1.975141555597955
10.007639703831980 5.859713913666579 -2.254217471378500
7.381798333555349 4.323950837149264 -1.975070257139135
6.013055263298545 3.525017708377927 -1.867638229459790
30.383397534758306 17.570156305034068 9.404448822845193
31.997193836693612 18.518292029736365 8.535092903914926
25.061522071817766 14.515970834721116 5.629628599589578
29.068380011641629 16.850350517912702 5.321587631738574
19.866652896273717 11.520928872711862 2.819812867708302
26.850826014420925 15.583668437715142 2.716121566988019
19.600626679404503 11.380375251934842 1.187816862889853
23.208208039076712 13.485817653411935 0.468527303215313
18.846189637555053 10.902792257282165 -0.380043602578286
nan nan nan
14.880643377245722 8.622537721900253 -1.504656742795571
14.225269144775320 8.246100099321474 -2.018887542849673
10.783315569457248 6.255899345018602 -1.974515817737794
10.044329830214181 5.831866730166875 -2.257652033295278
7.468371098358386 4.337975120605400 -1.993966145704020
6.009233117656647 3.493246226695944 -1.862461848557739
34.761207338228544 19.940171612233062 10.737884543213381
35.434948168788459 20.343094051501410 9.433097512855635
30.559336672084754 17.558206428427525 6.850806169999466
29.027187219404976 16.684632268818447 5.302815495933746
35.423995928670429 20.377928904294301 5.017848345363542
18.900191388114649 10.881264352052556 1.908013520231733
19.134668153303682 11.025152817939876 1.157357336356460
23.366019950320961 13.468636588875480 0.470761211239285
19.645533681389953 11.273881649841352 -0.395366815430221
nan nan nan
16.161266298471947 9.289387330240276 -1.630858258294180
12.249153115927912 7.043575440967630 -1.734931972715680
11.097856786316212 6.386706523111278 -2.028016404781553
10.069729416117530 5.799709484814545 -2.258796887267537
7.444632270877406 4.289502582547741 -1.983618397204201
6.001307754608657 3.460668210204784 -1.856250191475279
34.993231830953256 19.927421908676823 10.790165990324089
33.324775876356924 18.992702510322310 8.855423205300589
32.188379588186976 18.359927569603297 7.203039575464566
29.388790628565754 16.776669139547167 5.359757641208390
29.092547649580833 16.614290980896772 4.113577817297347
18.965418785416077 10.839629867466229 1.911151126970648
28.309128471937893 16.193112323012492 1.709187658982060
19.256630358822868 11.019451439325378 0.387268898843321
18.740857944115369 10.676595329716564 -0.376483311665080
nan nan nan
16.266511084588309 9.282017197101235 -1.638527963655974
12.993564237811576 7.417410635105660 -1.837058482489193
11.037252452843116 6.305754105114870 -2.013311565067772
10.043587567264671 5.742709014469527 -2.248874819507957
7.471603830526180 4.273834151436122 -1.987217614073703
6.059093857933089 3.468671545449554 -1.870744058001020
37.331679698543333 21.086856733669574 11.488459774010691
29.366933207180999 16.601481734318998 7.788255403493294
25.152500018267713 14.230599813703261 5.617416823885479
29.172142574298846 16.518249370629619 5.309698612395517
18.894107003387873 10.702834928877055 2.666257495017816
27.131992258621892 15.381814237194167 2.728671993943682
28.110123441070673 15.949310163141805 1.693800887846634
23.839167179620755 13.531527101148333 0.478475174884565
18.969517819271172 10.719328908140913 -0.380322841081282
nan nan nan
18.617058227865058 10.537314562369069 -1.871582419763211
13.193843573959885 7.470798476892015 -1.861676089857033
10.878743311509583 6.164926670597415 -1.980460327409323
10.044787294307660 5.696961407695591 -2.244677021609673
7.447493537371469 4.225608778081105 -1.976869865573886
6.069484965364778 3.446546299337713 -1.870226419910815
25.390957396689831 14.231264507476764 7.799253105119360
39.171180759097176 21.963865697782364 10.367994094708738
25.188324093550655 14.135028248350341 5.614363879959455
24.923804915370859 13.998029084814030 4.527526287194362
26.407669485741149 14.837479690217334 3.719208622038291
18.450169880209184 10.374934048769758 1.851885221902241
28.470222409452038 16.022511734817076 1.712118472531664
23.766022956337025 13.380538004701645 0.476066742796220
19.324297773312360 10.830989502944259 -0.386675517024453
14.172251598160299 7.949844519748678 -0.851610679985182
15.081773605728623 8.466958172888395 -1.513198005584841
13.138493602771025 7.379010396153845 -1.850220371576949
10.946690374253215 6.153048972581852 -1.988907788521495
10.021835035927367 5.637799483653019 -2.235136571840846
7.440120782214119 4.187161618446117 -1.971021138160945
6.022565933013132 3.392156764254015 -1.852109086753639
30.004000998895052 16.672587419728011 9.197393586763177
41.206158886568147 22.916217815893681 10.885381519699628
25.227218471224642 14.041289673420497 5.612074172014935
25.438452643237998 14.170493951576610 4.612000898316087
24.352475538132172 13.571119980291270 3.423066117563782
18.371429568275619 10.246415501529315 1.840380663859550
29.343895897472265 16.379591518257808 1.761209599487546
19.536830097292349 10.909817286267600 0.390584856066405
19.304310272376888 10.731406078271972 -0.385523658199593
19.736067263087495 10.980442843629005 -1.183629986390418
15.139088527823805 8.429769747438353 -1.515986989352766
12.964740249074760 7.222010546781861 -1.822190422593765
10.919791803852718 6.087867196579538 -1.980147458479242
10.048311317536525 5.606608787346358 -2.236663043803858
7.425764246797390 4.145018285861016 -1.963372802313254
5.990520547257439 3.346616787883536 -1.838650496408307
30.648675740270150 16.884098266180654 9.375978727883917
25.202985605202958 13.889847512167091 6.643704438991708
25.471766114161493 14.049571729329564 5.654433768988529
24.261362759975039 13.392991782126961 4.389238220098798
24.557323767715040 13.561963756842511 3.444515122003088
18.459462784859959 10.202785311557074 1.845261385453419
18.703798236281166 10.342094790905675 1.120094135511484
24.026185412567095 13.296013300010303 0.479312890393554
18.732346731433889 10.319492615275715 -0.373306973693494
nan nan nan
14.566026147767650 8.037561780872137 -1.455500903885891
12.709101041342906 7.015800698785720 -1.782461016643687
10.991500068807268 6.072640944940545 -1.988907788521495
10.123026022581008 5.597434990143134 -2.248493201517204
7.412636278858169 4.100439148264941 -1.955724466465563
6.074311720016813 3.362889435158571 -1.860391296196919
25.567941597007131 13.963258976985413 7.805982400292026
35.967779167072230 19.659159606469839 9.463240954137712
25.543044159288527 13.972821674304134 5.659394802868319
25.887189821544009 14.166950567751742 4.673948946472018
24.456525020275588 13.395104768194305 3.423797333624213
18.526412769495405 10.155526331015055 1.848398992192335
28.024743323181156 15.368537868114650 1.675064615511660
19.276192020535177 10.579658431207895 0.383813322368739
20.203731878070379 11.038315245283156 -0.401859110624890
19.405967859505932 10.611254280718278 -1.159136758868720
15.116581053454579 8.272657558198047 -1.507620038048991
11.998720134252617 6.569107391828963 -1.679603290809742
11.210119941361617 6.142448338488568 -2.024574846550668
10.137338836759692 5.559232924919645 -2.247348347544945
7.423487297034182 4.072664593437374 -1.954824662248187
6.084320006420132 3.340735852376909 -1.859873658106714
24.432387705320892 13.249144778762130 7.447259203779932
24.890304676596962 13.503085230878840 6.537527541341405
25.369421917934964 13.774472226875073 5.611310936033430
29.386556089045921 15.968882504096779 5.297183855192298
24.547319258756840 13.344753642766729 3.430622016854902
18.561726051021644 10.099178296388891 1.848747615163325
28.104462709920281 15.297607094279254 1.676948709936406
19.044172905285862 10.374598005762206 0.378542695624679
19.269725903510512 10.449547192109790 -0.382626558731004
19.354949474459982 10.504506612027388 -1.154112507069397
15.433125204303559 8.382991284255295 -1.536555744641213
13.763500691994944 7.479193027230899 -1.923341977620038
11.279686415291334 6.134570074555563 -2.033648045523001
9.921965082928331 5.400648466701323 -2.195829918793278
7.432822398024230 4.047459060768696 -1.953924858030812
6.025237131737440 3.283701852846855 -1.838650496408307
29.595765521790408 15.909035827872195 9.003279302936287
24.987055774189738 13.442894584299378 6.550574702493349
25.313633179153925 13.629987154752943 5.588413856588244
29.232716048921482 15.746777758437688 5.259013845722482
24.597246262905834 13.260870255023981 3.431109494228522
20.315225885463235 10.961501112600063 2.019572870948735
24.716409456412062 13.341821177373504 1.472001105289038
18.693211547771806 10.098950549099445 0.370863636792275
19.267338214094167 10.361383214269795 -0.381858652847763
14.124172818776140 7.601903970964935 -0.840620129174164
15.439490125663266 8.316785183612195 -1.534289695329774
12.090953899200464 6.515753102733633 -1.686427974040431
10.821172164340794 5.836349408497834 -1.947296220820794
9.997768053558158 5.396756101595742 -2.208423312488129
7.421185010238076 4.007599455749435 -1.947176326400496
5.892204256772736 3.184574046237429 -1.794651258740879
25.194201510946076 13.435502888168042 7.650690973230514
24.855014946332677 13.260194501242085 6.503784883189825
25.118598974728162 13.412082788152709 5.534987337882812
24.260245772327867 12.964649685638125 4.356699851370430
24.114700222803911 12.892281572929573 3.357500410811813
28.167258136280328 15.071518476002330 2.794910358431902
20.156447485726119 10.789681502397277 1.198179382225956
18.975123125741955 10.165845467398219 0.375750310594714
18.135304402847613 9.671151299492644 -0.358751666724800
15.620130404379713 8.336869742980824 -0.927916504187394
14.312073390660990 7.645145892585007 -1.419592737873856
13.125573431829459 7.014292561738528 -1.827308935016781
10.893735385076898 5.826490176849219 -1.956682288723208
9.900577040554499 5.299747042884318 -2.182854907107672
7.388745270402252 3.956830829898594 -1.935028969465927
5.908392717854769 3.166724816029464 -1.796204173011494
25.386742386630644 13.418904702497299 7.694172572807737
25.276665646731661 13.372010901299699 6.601863542883750
25.373469657302984 13.434560634244761 5.580781496773183
29.041691332537617 15.383274340925285 5.205200389748642
29.414149531552379 15.593714779673128 4.087741516495456
19.000863007698069 10.081678745105236 1.881866797407435
24.715451010362365 13.119313835125926 1.466453493927286
28.919259867926467 15.363696975065073 0.571601215633910
19.040454149382132 10.068640626200393 -0.375959739471961
15.726808315701167 8.323402356804426 -0.932522068336773
15.565840576922970 8.245167032459802 -1.541087843264092
13.860360877282613 7.344878988623970 -1.926023103174951
10.920987760024687 5.792130671820432 -1.957933764443530
9.875663948431498 5.242143249394505 -2.173314457338845
7.387022144976735 3.922789396161060 -1.930979850487737
5.909175362167370 3.140641473682110 -1.793098344470264
27.236121143123956 14.281096670313488 8.240280757974055
25.656252291573310 13.458411430479721 6.688694649860483
25.489740557620962 13.382412975582961 5.596046216403306
28.113291865169593 14.772328827486238 5.029993788903584
25.253108430771082 13.275050081308942 3.503012406837559
29.661223021527348 15.605524354006995 2.932267809002211
18.826208997859027 9.909143421376459 1.114965211799675
19.376474883593573 10.207414020718232 0.382277510602258
22.463414946875009 11.778556818568008 -0.442732646501008
15.709785014851480 8.244324207233021 -0.929800598612140
16.975650427240904 8.916195541318807 -1.677573736406925
12.539849196590129 6.589152798880212 -1.739319269078265
10.921907745865346 5.743859974499780 -1.954492206212644
9.864368240610945 5.192093621642093 -2.166826951496043
7.355838584746715 3.873372923028964 -1.919282395661856
5.853449824692247 3.084868498712380 -1.772910458952267
27.240283560232466 14.156232040151295 8.225786891448314
24.964848142650894 12.984803491743422 6.496586449450821
25.619887142993566 13.336869085496772 5.614363879959455
24.915494805849960 12.975713140928230 4.449309054674246
25.332739198322546 13.204252579921352 3.507643441886955
20.328507631445945 10.604908837820052 2.005976575080100
25.004747911629490 13.049946795951358 1.478176748125706
20.181235215235493 10.541526530981054 0.397426199389820
19.035764090625896 9.896726929987381 -0.374493737331230
19.221730549275239 10.001936016833284 -1.135585578559395
16.001184527814356 8.333239294096986 -1.578390501160089
12.649036672372553 6.590284594810395 -1.751262464731969
10.787755208080547 5.625325566537576 -1.926959740365564
9.866767633862644 5.149453740744847 -2.163392389579265
7.410773236388803 3.869319197715851 -1.930080046270362
5.886440574496560 3.076048716853939 -1.779639754124933
27.329029855498415 14.081410878184473 8.237692567523030
24.951646829142273 12.861964664077625 6.480839875646751
47.530174208851633 24.521647661771567 10.396037304095668
29.766362270994517 15.370145004361204 5.305944185234551
25.458566497906528 13.151402164087084 3.518367944106608
24.278571309700663 12.552577823240041 2.391204958024749
29.311781414265880 15.161346800058897 1.729494010004322
18.763545900112113 9.713637458618603 0.368804252832675
18.871040336266379 9.723392088149668 -0.370549493476403
17.209773645008781 8.875020216109720 -1.014794191550681
17.231999611797146 8.894098217306986 -1.696573688325914
12.794810464243913 6.606722391818036 -1.768080434121880
10.880250642275902 5.622932591986696 -1.939787366498863
9.850699147927793 5.095216285015356 -2.155760029764203
7.437020453434794 3.848400578531231 -1.933229361031176
5.885667253633877 3.048234099615657 -1.776016287493497
27.352211058816128 13.972746307431292 8.229927996169955
24.972097838366871 12.762373180692419 6.474541246125122
30.419933711135389 15.559967554028013 6.641679511066772
29.731915315975236 15.221138385070430 5.290300738730527
24.200391307561169 12.394627430395989 3.338488793240610
24.306282921561092 12.459573571571049 2.389636154655292
25.269877900050911 12.959089048035960 1.488329923636837
19.537419222077546 10.027941381443796 0.383324654988495
nan nan nan
17.265544642231418 8.827621912832765 -1.016259598325483
13.923156835193700 7.124839314860974 -1.368345161138233
11.990839809150465 6.138663794398208 -1.654010728694662
10.947278977135145 5.609240595059042 -1.948234827611035
9.849208494564389 5.050945257375974 -2.151562231865919
