# This PCD file was generated using the MATLABÂ® pcwrite function
# from Computer Vision ToolboxÂ®.
# .PCD v.7 - Point Cloud Data file format
VERSION .7
FIELDS x y z
SIZE 8 8 8
TYPE F F F
COUNT 1 1 1
WIDTH 985
HEIGHT 1
VIEWPOINT 0 0 0 1 0 0 0
POINTS 985
DATA ascii
19.674163260061917 22.808828906283843 6.954136893986243
nan nan nan
19.359693989622947 22.475962411391063 4.698352723018294
24.167023465531333 28.067017511823689 4.547676418506484
nan nan nan
nan nan nan
18.858587983487844 21.940618209340503 0.505002832669236
19.036539472198566 22.061826612107218 -0.508632933208191
22.666706936888669 26.287446827081588 -1.819093167092242
16.769312447246570 19.461745112655493 -2.247572293976609
19.829318993807892 23.021181460161561 -3.730664340318375
14.729414245030517 17.112437667665866 -3.576091870819678
10.956251463466669 12.737817454664848 -3.265886764864941
8.337102713227551 9.696198698079348 -2.952257637208884
6.063297487357145 7.056704088683668 -2.492945042427479
25.615597626663988 29.467374241799732 10.461983441134095
19.661646862267720 22.634089410944704 6.921743942160726
27.434467972448878 31.604279773991223 8.134950708883611
19.449710447941928 22.413806415562693 4.700229936598777
27.188386792744865 31.353944220702520 5.095600986456026
22.581506817747272 26.059612622308872 3.016808879467439
nan nan nan
19.390506707349878 22.400808686567569 0.517149707549585
19.054409175693454 21.927318460626154 -0.507062216628835
20.230935447772907 23.297654794039808 -1.617076375994478
16.962502436651761 19.547553006314978 -2.264306196584159
19.300797618291959 22.250043382982692 -3.616594634891157
15.774995267371686 18.198312706303703 -3.814497995540989
11.039210677609862 12.744013375567709 -3.277335304587534
8.370897970452528 9.667037706133952 -2.952257637208884
6.089157139180308 7.036957097725909 -2.493462680517685
23.449035377009263 26.776186401965404 9.536964173937683
19.880508900834080 22.717321268525637 6.969433565681626
27.237358054296262 31.145873322995833 8.042599155121364
19.909990243307231 22.783084409725909 4.792213402042433
27.303122123943751 31.254083203188689 5.095600986456026
24.975084562167428 28.609311219770095 3.322551225026225
20.802358754938652 23.846191549715396 1.658421781426404
19.597336819671657 22.472765496665829 0.520465664772669
19.637810932492844 22.432090716953034 -0.520395855146920
20.276738268382381 23.178251424077363 -1.613936218619902
17.246467544834285 19.728254160456363 -2.292544657234401
19.408343573417984 22.209048044851922 -3.621469408627362
11.581043869648179 13.261576249209840 -2.788600773807155
11.112953586652887 12.734530485007141 -3.285349282393348
8.407554262688747 9.637760398930940 -2.952707539317572
6.139027397709655 7.042260057218817 -2.503297804231581
23.934646310638794 27.138977119458783 9.695879067630633
20.560112969230321 23.329077283995368 7.179087948330108
27.379647857610042 31.088914248463578 8.052521222880943
20.084665142836755 22.821697840136721 4.815052833938307
21.126135856884208 24.013544223102691 3.927117721887473
nan nan nan
23.397949130764086 26.633326600203535 1.857926446624506
19.388002280933215 22.076669627721053 0.512856415566013
19.598298317746380 22.229905865770039 -0.517289326801083
20.307350984585334 23.050383359467364 -1.609958685945438
17.628565132012522 20.023845576064367 -2.334030790782286
19.477880585164097 22.132223869284619 -3.620006976506501
11.684664119387113 13.286337327371106 -2.802367006730696
11.169001766632780 12.708933722478791 -3.288783844310126
8.433428072551514 9.599569729821638 -2.950008126665446
6.055237988543120 6.897387002524927 -2.459298566564152
23.703859063319324 26.698299008539170 9.566469545079373
26.798792183159662 30.194819080825933 9.320621985683703
27.584400463261598 31.101843248970692 8.080760954196673
20.147172579984861 22.732231988674823 4.810985537847261
21.201931663871335 23.930738982874256 3.925655289766611
nan nan nan
nan nan nan
20.112761995779039 22.741338582728510 0.529924869061677
19.667809869455255 22.152387395450670 -0.517079897923836
22.786863431894847 25.683513878412509 -1.799414847544895
17.550316981398158 19.795215659671051 -2.314507904406810
19.078387280530052 21.526312136802968 -3.531773571881174
15.540884308819663 17.547252275547013 -3.712502724334759
11.234114551776353 12.693391819780047 -3.294889732162176
8.320971451401039 9.405147320595001 -2.899169188383732
6.051126744578736 6.844367258199468 -2.447910528579641
20.843263353948256 23.303734614063409 8.377454851878392
19.895241428621038 22.259434135690253 6.892500305096024
nan nan nan
19.842312936565961 22.231433391933415 4.719627810263765
nan nan nan
21.197436552010203 23.774767380150468 2.786717718613622
25.198936153567004 28.282665927053934 1.985207492207345
19.999171914908072 22.454467636633296 0.524863671194864
24.667275336012771 27.588846097301793 -0.645983371869612
22.844439563479273 25.568071449358218 -1.796902721645234
nan nan nan
17.982264699304114 20.147425412386529 -3.315821095367253
15.152361379709445 16.988719998571245 -3.605501550247241
nan nan nan
8.410790735851490 9.440064577122042 -2.918964881165993
6.076265802091140 6.824646028549427 -2.448428166669846
23.177412943591527 25.741124876516871 9.281250957376393
20.022361082966889 22.244891271766740 6.909596585226158
nan nan nan
19.936960779421540 22.181134223073602 4.723695106354811
22.169832938190009 24.674006754057363 4.072873456600028
24.235338993036272 26.991766089869675 3.173689216413225
26.593831105432177 29.628904200080953 2.086529903493685
20.005329890381837 22.304134709509061 0.522978811299638
25.914157453789567 28.780587579432904 -0.676001510941740
23.350353216656071 25.951406080453275 -1.829560358340830
nan nan nan
17.487181573837628 19.455599374650831 -3.211988414786067
16.317722822576325 18.167253647867732 -3.867685713654668
11.319833896284822 12.611732124798783 -3.294126496180669
8.448897197614727 9.416449805549082 -2.920764489600743
6.136161483639005 6.843668117691336 -2.462922033195587
23.276794861588218 25.661726105591391 9.283321509737215
20.085491935340382 22.158982160257089 6.904647662030592
21.587467685304375 23.832725175325933 6.250521070544855
20.718189027231720 22.881059917834218 4.888889901437295
nan nan nan
nan nan nan
21.278389573792179 23.540999409409096 1.663027345575783
20.072340850134612 22.222295514924095 0.522699572796641
21.235226872642862 23.419192325637606 -0.551810186734030
23.515898945951832 25.952622659360355 -1.835421985440040
20.732134475294817 22.896461197950611 -2.702350959633889
15.322315155334486 16.927822094108603 -2.803482375692013
16.255153285152268 17.971009610426083 -3.837963165297024
11.387484592302471 12.598357931759233 -3.300995620014225
8.557491528747070 9.470763531950428 -2.946858811904631
6.143182323341430 6.803567312511054 -2.456192738022922
20.605352211570022 22.565740039326158 8.187999310863345
20.133815493425018 22.057071397999746 6.894749815639463
21.088378059999542 23.119019457380588 6.082609154613495
22.119356255316536 24.266279856885486 5.200507355797435
22.616973770088897 24.820896496610221 4.123083626082949
25.590217998483425 28.103568657483205 3.325340208794150
21.313378026139976 23.414885538884420 1.659363828638777
19.988321426683111 21.974581973075260 0.518510995251693
21.186050997724308 23.201686356329756 -0.548424419885197
23.463645623735147 25.713990936970699 -1.824326762716536
17.744443891060278 19.459911721551936 -2.304049215277091
15.277003659809218 16.759802677100520 -2.784470758120809
15.382641496239922 16.887530387750015 -3.618016307450460
11.513327678486041 12.648546346467832 -3.324655935440917
8.540660520980650 9.386063358659628 -2.929762531774498
6.182489716742675 6.799233890471539 -2.462404395105382
20.417191849924734 22.195753037656427 8.080848226190902
23.708157196220952 25.791460415117374 8.087890207879322
25.650036498113419 27.923535390870558 7.370188255414419
21.206095883846121 23.093793775529381 4.965855658237088
22.690055773682655 24.727171038321682 4.120646239214846
25.561586020293049 27.876034391641198 3.308954929157590
21.380135938891293 23.324150032665987 1.658212437601432
20.108128209746152 21.951861941410691 0.519627949263679
21.124788619946134 22.973035039865145 -0.544759414533368
23.512719752073991 25.587811418895381 -1.821186605341959
25.102651345750928 27.337207969496589 -3.247074351806753
15.340782758451256 16.712223446886700 -2.785445712868051
15.366719040164833 16.752212780225022 -3.600495647365954
11.383623548964065 12.418692955475951 -3.274663978652262
8.637882901387892 9.426595041525511 -2.951807735100196
6.225755448322959 6.798983039751059 -2.470168966458458
20.566873271191618 22.217979977086465 8.112424149693410
21.244386814474076 22.957920678404719 7.221378746546756
nan nan nan
30.780956005779530 33.310312172230148 7.183470634647402
21.260625316450550 23.015727386323967 3.847171432613696
21.367201567742221 23.147307203231652 2.756038897166447
21.367969656036205 23.156246923379367 1.651304091377364
20.232325434276632 21.940923273767091 0.520954332152913
21.293226327065966 23.002644589879932 -0.547132941808838
23.502505014613210 25.407068612751754 -1.813859571467947
18.214600068496615 19.704443341712192 -2.347627086650920
15.466173980027090 16.737072210752427 -2.798120124582186
16.609539823821034 17.986983982558296 -3.877697519417243
10.664513465899477 11.557022548668400 -3.056760105932248
8.612278922703350 9.336306266508679 -2.932461944426624
6.316354194003322 6.852162758546576 -2.497086147149120
20.650803134261871 22.145275118062077 8.113459425873820
21.337680884671784 22.897880883416491 7.225877767633632
28.598329238405942 30.710910705766988 8.157084552347291
26.089747607714134 28.026824612891254 6.064651340679671
21.405734309453024 23.011139696474253 3.858870889580590
25.829416454562363 27.786035650550243 3.319064995316318
26.668081853853980 28.698273958015349 2.053139563410686
20.277493658655459 21.836462838974494 0.520151521456798
nan nan nan
21.755932532585692 23.354886244342445 -1.672761833436971
18.446174544498671 19.815741666453768 -2.368544464910359
19.628759722980714 21.093510579120856 -3.537867039051431
15.957931601775160 17.160763001522444 -3.711564117544517
10.643314333092690 11.453570310240501 -3.039205678357606
8.618290266391421 9.277631577964677 -2.923463902252870
6.378349230980294 6.871132546796744 -2.512097651765066
20.979310114284011 22.348511401792631 8.213363577283394
21.810864404825580 23.242464591666479 7.358598889696513
nan nan nan
26.115007972201887 27.868083646135997 6.049007894175647
nan nan nan
21.490153404341616 22.956846284950476 2.751158175572578
26.712143388980166 28.545218888248147 2.048848014998765
nan nan nan
19.260747609830496 20.517788012117265 -0.491215431583782
21.790864271105246 23.229275315897045 -1.669202988412451
18.531583407907224 19.768674725182102 -2.370636202736302
19.650690053441881 20.969822207082320 -3.528604968952640
16.216219913449560 17.316910398531579 -3.757555850266345
10.675181270472548 11.407747465262458 -3.036915970413087
8.707867548981740 9.308686151149846 -2.942809692926442
6.284882311664761 6.723224294463271 -2.466027861736818
21.075681451941140 22.286908254969052 8.219057596275649
21.890524406816812 23.164772493400786 7.358148987587825
nan nan nan
20.996360217301579 22.241876372777288 4.844462513365870
24.649810012294669 26.130317593467346 4.410695276519098
nan nan nan
26.699301990287179 28.332611039138481 2.040264918174922
19.453350706881338 20.657836887819567 0.495299294690106
nan nan nan
21.945879530956443 23.231470797856311 -1.674855271686688
18.668860162726141 19.776307677264004 -2.379351777011068
16.135151786245025 17.098275616208173 -2.886597267894323
16.111227754795642 17.084867140261434 -3.719385840796529
10.888626931489561 11.554730221502073 -3.086144691220236
8.779058667844652 9.319369032543971 -2.955856854078386
6.426162959959774 6.826436185890664 -2.512097651765066
21.097523681652788 22.162326456582139 8.198869710757652
22.129771985460344 23.254798806539810 7.411237436412976
21.572081284521079 22.684607443957585 6.084898862558014
21.154368586749523 22.260907794414344 4.863860387030859
24.740871667304557 26.044114504426108 4.410695276519098
25.913211191582157 27.297283729176240 3.292918272492021
26.770542149436601 28.210265260072585 2.038171479925205
nan nan nan
nan nan nan
nan nan nan
18.589523670288216 19.555065381387202 -2.360526136577574
19.521749054637095 20.542889470271156 -3.479613492903771
16.589726892626622 17.469707541931836 -3.815749471261311
11.059981396938525 11.654788582070992 -3.123161636323286
8.731065204471587 9.203839607380830 -2.928862727557122
5.963514723150199 6.290826795592253 -2.322642110750021
28.532913664938679 29.764244319423387 11.047949759246201
21.547440025208825 22.485168832681776 7.189885598938613
26.447107889828356 27.617358251419446 7.432773605897927
21.212824280647457 22.166949136276511 4.859480222009732
23.698180938722249 24.772748104205668 4.209367121213794
nan nan nan
21.909594302100157 22.927080797927200 1.661980626450924
25.844962946281722 27.064116330321930 0.653208668134647
nan nan nan
25.409635532951441 26.524709983021342 -1.925021142527960
21.599194935277421 22.562813384770887 -2.732681158110074
19.645491931788701 20.529120245736507 -3.488875563002562
11.136355942204752 11.645389711654472 -2.552071862666327
11.093814930452371 11.609014195363347 -3.121253546369520
8.833136834497093 9.246580151958479 -2.952257637208884
6.511014110690472 6.820533303935297 -2.526591518290807
26.083315948144936 27.019500091980049 10.062884473586006
21.666393214367950 22.451885606833059 7.203382662199245
nan nan nan
21.558525207788055 22.363529010860084 4.919863925515260
nan nan nan
21.946763957355412 22.798096871328600 2.768589324122110
26.706471194079761 27.752129751089289 2.018493160377858
nan nan nan
nan nan nan
25.482656001249790 26.415728126504842 -1.923555735753157
21.629425006263684 22.437076235672155 -2.726580256117738
20.020074520277166 20.774887426831970 -3.542498074100827
11.157754919879340 11.586525284210888 -2.547691697645200
10.962743519876463 11.391976063800152 -3.073169679534631
9.054501690562887 9.412306792894453 -3.015243932425166
6.603062389824889 6.868791721918007 -2.552991060891265
26.062305229498904 26.800456595358515 10.016814683557758
21.875011084096553 22.510283472025741 7.246573264633267
nan nan nan
21.498864417792237 22.146402492112120 4.888577032507214
23.621752908505687 24.350233016392338 4.165494157587941
21.840382076622845 22.529656417519753 2.745231585065737
25.969230613360271 26.798167137392230 1.955690012886325
nan nan nan
19.953214841960811 20.525507422723539 -0.499662396299427
25.468941975370402 26.217739657086433 -1.915600670404230
18.673931966217467 19.236384089752779 -2.345535348824976
22.229731986829623 22.907281845536883 -3.919318083909543
11.103243698823526 11.449658652198707 -2.526103741469648
10.753783950147032 11.097044188409134 -3.003715205217568
9.068318884529475 9.361047845867514 -3.008945302903538
6.573251771003933 6.790180197363005 -2.532285537283063
26.095028368203263 26.665979704219051 9.997144436129965
21.923645674199449 22.411151881335229 7.238025124568201
nan nan nan
21.446549913753607 21.946423190481688 4.860105959869893
23.512364004065965 24.077194777489542 4.132101957494930
26.843719893446973 27.507781794126132 3.362642866690147
26.011929747262137 26.664723700976161 1.952235839774291
nan nan nan
nan nan nan
nan nan nan
24.499827319409317 25.070865971811465 -3.066836275804596
11.295664259914965 11.562978694465343 -1.984764126696232
11.128732165796551 11.400054317818029 -2.523287921098924
11.034547992381954 11.311470399961205 -3.071643207571618
9.072100517765172 9.303021263460852 -2.999947260729784
6.595732678002991 6.768345174264573 -2.532285537283063
24.781804638871758 25.147814418343238 9.460353736587338
24.656228231663327 25.029119583601958 8.111285117531084
25.395751387695658 25.797833127765809 7.036654131496220
21.511942222374589 21.860163284699329 4.857603008429249
23.690912586515509 24.091220614646314 4.148676188198031
21.917819297351993 22.303734954812498 2.735818764848990
26.151036937414691 26.620780748720907 1.955690012886325
nan nan nan
nan nan nan
25.405770270631287 25.799002426381737 -1.897597101456657
24.617936182571981 25.016435016434670 -3.070671128485492
27.246391439301433 27.697105664565616 -4.770453578251092
11.204462929725384 11.397764452543475 -2.531422513281016
11.056079522472546 11.254676807368748 -3.066682173691828
9.092230209042077 9.258783297498219 -2.995898141751594
6.630143151716669 6.756311247824017 -2.536426642004703
22.101629355937931 22.272012747564673 8.407477861110284
22.067217672464334 22.245099670413389 7.233976005590011
nan nan nan
21.762261030442026 21.968338149550430 4.897650231479548
23.812575794879944 24.046461032216268 4.155257132741909
21.956300118359220 22.187438304510074 2.730938043255121
32.482981242583385 32.847861294188959 2.421061335798581
nan nan nan
19.540930645870279 19.691573387424164 -0.484234469008868
25.177836316878700 25.389654164538744 -1.873941249234847
24.585903774130585 24.810057072761982 -3.055854652218390
17.795521231629849 17.964035419715216 -3.104743392589537
16.116519445531406 16.280496880596392 -3.628340982143115
9.997642499355926 10.106416990414965 -2.763295871043122
9.072424505358590 9.174334693249941 -2.978801861621461
6.655044581276645 6.734500674950897 -2.536944280094908
22.222719733064917 22.230478279827352 8.422489365726230
21.855511529471649 21.878410559622246 7.139496562765587
nan nan nan
22.018445524866134 22.064609208707115 4.937071716669687
23.983274613591387 24.050342238432059 4.170368931324147
21.940794477838885 22.017516281377887 2.719433485212430
nan nan nan
nan nan nan
nan nan nan
19.734055953788886 19.761629148082847 -1.463627352290167
24.623099790794843 24.674724370406672 -3.049753750226054
nan nan nan
16.209510564901414 16.260514402800599 -3.636475574325207
10.733954299345637 10.775249056064984 -2.956394574364185
9.101643480760183 9.139848427936000 -2.977902057404085
6.645807426792802 6.678364585627649 -2.524520965929987
24.666953028848308 24.512450866570461 9.318003261780952
21.887522689385328 21.758023367343259 7.125099695287580
30.446939542546154 30.287935647851778 8.347893547723835
20.977962778358762 20.875694796811850 4.687402310465478
21.931847409940339 21.840171374131714 3.800373604746119
21.930016376920126 21.853599473824655 2.708626173111720
nan nan nan
nan nan nan
20.526149615060934 20.397583492805921 -0.505107547107859
25.442279787066273 25.300578626537295 -1.880430907808972
nan nan nan
nan nan nan
11.207046559564333 11.164096994425595 -2.505454392084338
10.765939905230519 10.732170724246664 -2.954868102401173
9.118313265041888 9.092885618018126 -2.972953134208520
6.060561237978679 6.047881301967007 -2.294172015788744
24.738616619461894 24.412628437799626 9.312826880878902
21.740058246434344 21.461073631353226 7.052665455788856
nan nan nan
22.318074636338064 22.054757856887790 4.969610085398054
21.934552744943865 21.690899720905552 3.787699193031984
nan nan nan
nan nan nan
nan nan nan
nan nan nan
20.425773348748521 20.170694859472036 -1.504449398159663
19.809165586790161 19.575449830798469 -2.436525944253532
23.002785226468262 22.739326661682075 -3.971478162886946
16.861900684099833 16.680417506932240 -3.756617243476104
10.679160299811477 10.571599619848570 -2.920904101224148
9.152767177004478 9.063743801772267 -2.973852938425896
6.670313512378800 6.610048726517151 -2.516238756486707
24.795000872309370 24.272582691381359 9.297297738172752
21.879377816420146 21.433351705640746 7.071111442245053
24.785466379454981 24.297157833140783 6.746624458523872
20.674150870247935 20.280997591770987 4.586971383909649
21.961004360917563 21.550902160591239 3.777949645559572
nan nan nan
26.407062213487105 25.941089627384063 1.939989226013442
29.963931202510810 29.455754923278324 0.733419928120402
20.709408358889181 20.280151005749605 -0.505945262616849
nan nan nan
nan nan nan
19.238300299452078 18.872452101742617 -3.308996412136564
11.251930590935384 11.045666471236071 -2.497319799902246
10.578219751873586 10.391559063369233 -2.882360684158086
9.159703102099035 9.001215169385020 -2.964854896252141
6.628151398575427 6.518015749620262 -2.490874490066660
27.992121304999618 27.211644456718329 10.460430526863480
22.057426693636220 21.457401814810037 7.104404198287945
24.740706271336020 24.084503056968693 6.711515603374587
nan nan nan
22.053157458415694 21.490737773642369 3.780874509801295
nan nan nan
nan nan nan
29.279560399015416 28.582704654627683 0.714222281039390
19.816692021172940 19.270890936396597 -0.482489228365140
nan nan nan
20.411748825345573 19.877303255671695 -2.492654242583024
19.187462355853878 18.691598289506164 -3.289009839818120
10.820809619007848 10.548530188559612 -2.393447315115532
10.683289598770662 10.421746035294774 -2.901059965704987
9.185488605920506 8.963742880730235 -2.963055287817390
6.639806009434925 6.484041735467345 -2.486733385345020
27.168218533844335 26.226881524608494 10.118271749237946
22.078932960446174 21.328826076494252 7.087307918157811
24.934725700217037 24.104428511338348 6.741281806653328
21.026779566875035 20.340815995765201 4.633588854491639
22.279249951083440 21.559955250917969 3.806710810603187
25.967551995956583 25.146737811925011 3.162533281341524
nan nan nan
nan nan nan
nan nan nan
22.897712127180430 22.127515321388948 -1.668784300762507
25.124326119189011 24.296199764000605 -3.057772078558839
19.389559504046190 18.757007503520377 -3.312408753751908
10.744021774026489 10.400778492042265 -2.368417800709095
10.744985049509367 10.408979041963516 -2.907929089538543
9.198529206603716 8.913994940225136 -2.957206560404450
nan nan nan
27.258207349831299 26.130550086440120 10.117754111147740
25.193643925852673 24.168278088226003 8.059996277140682
24.939401861859878 23.941105911129391 6.719911199171156
nan nan nan
22.388724212311615 21.515066030129930 3.812560539086634
26.075277696382663 25.075275290634355 3.164973642138459
nan nan nan
nan nan nan
nan nan nan
23.355251784782297 22.412536159596204 -1.696417685658781
20.466670301870099 19.654277833760524 -2.482544176424295
22.154839813635459 21.282871964275586 -3.772099917076125
11.213181174557871 10.779382733029012 -2.463529955453556
10.784083430189112 10.374130784127479 -2.908692325520049
8.986667947123671 8.648063799543097 -2.879373495601472
6.676561804103723 6.429489298153321 -2.483627556803789
26.488110502093367 25.241923522245809 9.804065428483486
26.245525449408415 25.019493368589703 8.371328536352593
25.057108415536785 23.903292616659233 6.731359738893747
nan nan nan
21.982445587496301 20.992205499832711 3.732126772439237
26.179852968564170 25.018010905327763 3.168111248877374
nan nan nan
nan nan nan
20.889469340773477 19.906681810257123 -0.503676449780002
nan nan nan
22.776887559537961 21.735664323929527 -2.754470093796989
16.291431143132158 15.552117895982340 -2.765459140549607
11.276985996563266 10.772756927570969 -2.470100202985245
10.869129323490506 10.390395596142652 -2.922812191177913
8.925062731292572 8.534937674323603 -2.851029662754145
6.660438597805889 6.373755483386781 -2.470168966458458
26.524312749550436 25.091566354767792 9.783359904875285
26.327039066824391 24.922368175970934 8.369528927917843
25.217358573588328 23.888590638864059 6.751967110394415
21.339126914654599 20.228850939573960 4.657054024247673
21.966282592408930 20.830655984739295 3.717014973856998
26.220775324551468 24.882586694791200 3.162533281341524
nan nan nan
nan nan nan
nan nan nan
nan nan nan
23.104256668010699 21.894485953107889 -2.784800292273174
18.933026947655542 17.947940489357183 -3.203213822060896
11.367546854509582 10.783629119527131 -2.481676353398222
10.881126759399764 10.329413670464529 -2.916324685335111
8.800773187272481 8.357462382833706 -2.801990332907182
6.622429939402481 6.293243976024971 -2.447910528579641
29.434834040425113 27.650818255285763 10.821224275736393
26.327320579678371 24.740299342080153 8.340735192961827
25.124538512199464 23.626541642943170 6.703883243559525
21.477861713957058 20.211421808333451 4.671133126101294
nan nan nan
nan nan nan
nan nan nan
nan nan nan
nan nan nan
26.070322362019748 24.507362709617457 -1.875197312184677
19.051335179861375 17.921706586349490 -2.288361181582513
18.998682268545448 17.878426923782047 -3.203213822060896
11.294822822204218 10.636261227426967 -2.457272576851946
10.847472714435979 10.222141172730154 -2.897243785797456
8.837017731879607 8.330496718160042 -2.803789941341933
6.625777778713784 6.250370392352603 -2.440663595316770
29.689984134934061 27.686358113013846 10.877646827568741
26.439165522921915 24.672180746628783 8.348833430918207
25.176724602795527 23.510557991058509 6.695869265753710
21.533030218507655 20.115035723239146 4.667065830010248
nan nan nan
nan nan nan
nan nan nan
nan nan nan
nan nan nan
25.592154282637448 23.890134665174553 -1.834793953965125
nan nan nan
17.848451114483680 16.678928227861832 -2.999448279887490
11.453078084066783 10.710104578397756 -2.483553566978705
10.910324950755538 10.209701514145083 -2.904494527621765
8.779260242992729 8.218360965470838 -2.776345912711982
6.627817042345016 6.208713924963802 -2.433416662053900
26.779942958093383 24.807182382601450 9.781289352514465
30.375893826867493 28.148087831579826 9.560869711722951
29.964582120240170 27.786389774890999 7.943378477525560
21.519976423401541 19.969617195998769 4.649858038855823
nan nan nan
nan nan nan
30.276935064347157 28.135064281603583 2.166080556982959
nan nan nan
nan nan nan
26.094305535803180 24.188983033195619 -1.864730120936089
nan nan nan
17.691206672112823 16.416682715005987 -2.963374954239566
11.267475861786478 10.463057685727208 -2.435371751746314
10.963155006901470 10.187592310543140 -2.909073943510802
8.847858707542285 8.224815880984085 -2.788943171755238
6.602771429410711 6.142119546806653 -2.416334605077134
30.408697522111162 27.962230773938220 11.069172920944608
26.670992194170047 24.542422158670142 8.367729319483091
30.067169037485819 27.686944132837166 7.944904949488572
21.514567495203025 19.818337323153166 4.632963116631477
nan nan nan
30.664575978289346 28.286548644918678 3.649908194786429
30.568711867792768 28.207995439693843 2.179897249431096
nan nan nan
nan nan nan
nan nan nan
22.971839217815432 21.160716275305681 -2.732506846624579
19.215515654255793 17.706745544355559 -3.208332334483913
11.078838997977536 10.216100445920377 -2.386877067583843
10.972678711937975 10.125296492904560 -2.902204819677247
8.859331645917791 8.178019299254577 -2.783544346450986
6.567408808885249 6.066600270414789 -2.395629081468932
29.968724648019943 27.384395674651024 10.877646827568741
26.657298777003309 24.367066652345613 8.338035780309701
26.325768775145914 24.080892749656964 6.935143745955898
21.862313774626756 20.012070976046026 4.694285426927248
26.513612508490752 24.278229047546482 4.414107618134442
nan nan nan
30.700364630801108 28.141560068031897 2.182618719155729
nan nan nan
30.947370640959274 28.278648914013782 -0.731744497102423
nan nan nan
23.826801844513870 21.802659462754097 -2.825589179879078
19.310734324254664 17.676435800910564 -3.214425801654170
11.491380565907283 10.526221162604472 -2.468222989404763
10.874497012871030 9.968132775540848 -2.867477582518716
8.884965921301157 8.147278680098534 -2.783094444342298
6.573256281156024 6.031727260793162 -2.390452700566882
30.383689758343237 27.559912015778085 10.991527207413851
26.726320856743431 24.259459451813697 8.333086857114136
21.334964634327374 19.379317427172076 5.602533722246108
nan nan nan
25.863846686263642 23.517791673165192 4.292238274729294
nan nan nan
nan nan nan
30.651736076443843 27.920285351096830 0.723716390141273
nan nan nan
nan nan nan
22.588921261280124 20.525527947980844 -2.670277646302751
23.779124901409642 21.614590100654738 -3.945641862085054
11.494444438619986 10.455473070741339 -2.461027004012912
11.071833613196015 10.078126363192672 -2.910218797483061
8.860038137642011 8.067669632296472 -2.766448066320852
6.531441112966820 5.951494634894636 -2.367676624597860
30.641909147961528 27.599784254249961 11.050020311607021
27.135007440977766 24.449626872197715 8.432515223134125
21.382521042985402 19.279955636378052 5.596427834394060
21.981490492998553 19.833943361106417 4.689279524045960
26.884124242032801 24.266113342225317 4.446768602167021
36.571635148855613 33.033415727083614 4.311594593726650
nan nan nan
nan nan nan
30.768561927468220 27.713862961706031 -0.722808865006534
nan nan nan
22.629971548906717 20.411904959528858 -2.666268482136359
23.849343698916272 21.519311089233547 -3.944179429964193
17.878159553325855 16.142824594372041 -3.815123733401151
11.003815939182607 9.942710676470096 -2.882742302148839
8.899667944210865 8.044288957359196 -2.769597381081666
6.596191828170613 5.966393184886840 -2.383205767304011
30.662213252044090 27.415182716673424 11.021032578555538
27.273921813613246 24.402837071588010 8.449161601155570
21.344379930644852 19.110908465048674 5.568951339059836
nan nan nan
26.956839229157147 24.161522914804916 4.444818692672539
36.983358609303806 33.171620377543043 4.346456890825714
36.819687403453621 33.036416074428374 2.592513928450466
nan nan nan
nan nan nan
20.354268176790342 18.218002384396748 -1.431597747069485
21.306012645854981 19.083256663113772 -2.502415685770761
19.315979053783423 17.306910678361600 -3.184445943176503
17.357863224662022 15.563386465528328 -3.692479112809609
11.069142168027122 9.931773245191744 -2.890756279954654
8.898688680737653 7.987140605581749 -2.760599338907912
6.634224925976827 5.958822702815219 -2.389417424386471
34.088594070088007 30.286555482814560 12.218329481199799
27.143489532908724 24.124544850300719 8.383925795395850
21.463381861703276 19.089602867406537 5.583452822708455
31.589206007141222 28.115299775763432 6.697898055162526
27.220656723966336 24.235681216342076 4.475042289837015
40.660406724678509 36.227100927326461 4.764455833043482
nan nan nan
nan nan nan
nan nan nan
20.829517808819531 18.519331885189093 -1.460696538740562
22.859185313539321 20.338181857110801 -2.676901482751573
19.404404207736050 17.270476540222379 -3.189564455599520
11.246322370021099 10.016587261306864 -2.385312722933441
11.078566449758416 9.874111683266984 -2.884650392102604
8.078577276318917 7.202809874314652 -2.498756311651653
6.606379226899088 5.894347666615303 -2.372335367409705
35.654352726514190 31.455666239547320 12.740108676126482
27.139868748033344 23.952280004652668 8.356931668874585
21.528414723429577 19.013265774691970 5.583071204717701
42.293943665550579 37.379059922356852 8.939916808119115
nan nan nan
nan nan nan
nan nan nan
37.041503455319940 32.806145987088783 0.863684689768286
20.726530534479281 18.285756911568736 -0.482454323552265
26.957872311215748 23.800030173494644 -1.884617784308407
22.667248187884212 20.026093209002582 -2.646222661304397
11.984261820365099 10.591597800644799 -1.963802599630547
13.807062914404151 12.211162031995036 -2.919379986580788
10.998293282809188 9.733890544572494 -2.854884188823863
8.035094303076631 7.113852662707578 -2.477610912543329
6.619684204963227 5.864845722084831 -2.369747176958680
35.092599586137212 30.742892778728269 12.500959878451752
27.224778051588562 23.858682640052265 8.357381570983273
21.652218306668615 18.988485826529267 5.597954306357072
nan nan nan
23.588118522334380 20.708084279222021 3.853996115844384
nan nan nan
nan nan nan
nan nan nan
nan nan nan
21.297716288791833 18.671020937848454 -1.484352390962373
23.777935410619428 20.860032589398724 -2.767369143723642
19.861696292878030 17.430509075991470 -3.244649398818647
13.975765567020662 12.273688887881210 -2.945973845637628
11.153129002449186 9.801712736254784 -2.886176864065617
8.026215231505061 7.056167907363753 -2.467263164043511
6.600954117648505 5.807249949398908 -2.355770948523144
31.655382675236311 27.527305666330953 11.240511128802476
27.324065228760830 23.777576917771714 8.362330494178838
30.018400909166086 26.140623976264976 7.737304762518892
44.943501888846022 39.151495089370314 9.440507096247853
23.684201092142015 20.646491071922494 3.857895934833349
28.729130412446498 25.062017819959326 3.335450274952878
nan nan nan
nan nan nan
nan nan nan
27.084202251941480 23.577154591618633 -1.881896314583774
nan nan nan
19.913439664068445 17.353247622406226 -3.243186966697785
14.308839234979560 12.477998848340720 -3.006983287003318
11.160649611961771 9.739485981100712 -2.879307740232061
8.130071761455131 7.097312765730512 -2.491557877912649
6.602271473054695 5.767650362748477 -2.349041653350478
31.704095576852772 27.385559439989038 11.225499624186529
nan nan nan
nan nan nan
27.175821598925619 23.507247018866796 5.691085838163599
26.580806189728804 23.008780973955087 4.316612143410324
28.846557241465007 24.987671726927928 3.338936504662784
nan nan nan
23.382511569331768 20.276006242080996 0.540221788859674
nan nan nan
20.826165033147902 18.002051077779925 -1.442692969792990
24.263536717131917 20.988103306636127 -2.806763539445583
24.240073336442048 20.975204702974516 -3.935892314612643
11.507531845669059 9.964621831433060 -2.410967975200038
11.255410806356664 9.753181658683095 -2.894954077852938
8.120928595218226 7.039532303006080 -2.481210129412831
6.590259212355880 5.716719609052459 -2.337653615365967
22.928014265798616 19.665572012077483 8.093789178446029
35.394428609212149 30.368855712343276 10.767057265114756
30.349116601758027 26.058314244064711 7.775466561594201
nan nan nan
26.621819005800898 22.882213764954610 4.310274937553256
nan nan nan
31.841677019132597 27.397833417254944 2.201459663403189
23.465268423015189 20.204700850922453 0.540501027362670
20.202676455278596 17.328024313933977 -0.464583059360487
26.035697499632686 22.346839702584433 -1.798158784595064
24.693342741283828 21.209650159084809 -2.847901050022478
25.367093736178354 21.796044410984251 -4.106509395379849
14.334191843371251 12.324998015249705 -2.994155660870019
11.268552572776560 9.695906596157103 -2.889611425982395
8.294624949473064 7.139541967115824 -2.526650242390292
6.582363396135046 5.669725671595070 -2.327818491652072
32.737696616663342 27.871817577560797 11.520553335603402
32.495275325621321 27.675211721987115 9.854205886587350
nan nan nan
30.784107696419007 26.254965628389680 6.408181425908017
26.714568603312017 22.792216767876958 4.311737369674118
nan nan nan
nan nan nan
23.469238905436114 20.058796098993273 0.538895405970440
20.360453483720228 17.334232519150913 -0.466747157758710
28.774932043578833 24.515377714450391 -1.981125287620396
nan nan nan
11.944051060486261 10.186770821792470 -1.927485535295813
12.338825133725329 10.530905582133517 -2.569279653820752
11.265199529629962 9.621389336149077 -2.879689358222814
8.205171174331975 7.010355293487133 -2.491557877912649
6.556113066495549 5.605389020438383 -2.311254072765510
23.059748811711252 19.486998608920484 8.089648073724389
36.792308173480691 31.113932056180680 11.124279539412811
34.278412218048665 29.008549168843576 8.728748302495418
29.474980232302332 24.952412641746363 6.116587583073027
nan nan nan
24.662619563105771 20.908023269840275 2.828726786617993
nan nan nan
23.377500993679245 19.839595990639406 0.535195495805736
nan nan nan
nan nan nan
24.294004723171536 20.566393116992455 -2.784800292273174
24.410502698300384 20.672330768808028 -3.927605199261093
11.921901740519615 10.103355514585123 -2.475106105866533
11.249304520832675 9.540104010321953 -2.867095964527962
8.351445726694152 7.085047327008113 -2.528449850825043
6.468131926283562 5.491199822727600 -2.273466492180543
22.982856034519550 19.305421685858310 8.042543007515730
31.663584510467487 26.606593639883354 9.548272452679694
33.260444051383814 27.968232385497114 8.447114225319639
29.604621879507722 24.902925523282622 6.127225126695762
29.671632381202389 24.976984974460319 4.762166462899543
24.903418929391400 20.978055588120483 2.848772607449955
nan nan nan
23.505447995408598 19.821487721823686 0.536696402759342
20.511718206495093 17.229684982715991 -0.467584873267700
25.958654707898486 21.820528939067614 -1.777224402097886
24.358495960408192 20.489969884773700 -2.784800292273174
14.769645755658591 12.428387795042365 -2.370114990543308
13.871052506556191 11.680510805954706 -2.872136778138639
10.965449681641594 9.240309802339487 -2.787337804460567
8.281284323498515 6.980902953336236 -2.500555920086403
6.389370258447174 5.389885898140651 -2.239820016317215
37.020808908286078 30.877429340358219 12.917140902976605
31.868489477356380 26.589538936345384 9.582015110831275
nan nan nan
29.918784459970482 24.989381039091889 6.174155466207832
nan nan nan
24.725858232660233 20.681360019824016 2.820185523828723
27.914149559322119 23.364696601080130 1.907750276967788
23.545363882137710 19.714925920583447 0.536033211314726
20.534880164178048 17.127240867506099 -0.466747157758710
25.727995423069295 21.473822688975904 -1.756290019600709
22.038263610835262 18.407250720628330 -2.512177128958499
24.272868071125718 20.280875807607853 -3.883732235635240
11.746176614414006 9.821328098432874 -2.425047077053659
11.020223086668379 9.220874761596438 -2.793062074321863
8.085932201633762 6.768085562720783 -2.434420310109307
6.302996866132502 5.279476031032985 -2.203067711912657
37.070634619372534 30.678395623153861 12.893329550827174
32.004753821118115 26.504873439750234 9.593712565657155
29.496257413146861 24.444814088720225 7.446511853565038
nan nan nan
26.534338223478326 22.013590251042292 4.233253512521204
24.899601512581288 20.672047456838222 2.831341458900424
27.986756414756432 23.243305403260919 1.906598885930444
20.684697413129530 17.191070097492958 0.469469733162927
23.367060163743620 19.344656179109922 -0.529506011307182
nan nan nan
24.795922219245021 20.556745733026123 -2.817919474517284
19.385645358674026 16.077133826405557 -3.092312719562212
11.779054536305498 9.775687157474103 -2.424421339193498
11.075089575370360 9.197982272539278 -2.798404726192406
8.262075607101570 6.864180573422085 -2.479860423086768
6.414406021500308 5.332911538058966 -2.235161273505369
23.533707446136802 19.337684945782328 8.161599768262889
23.484271838808844 19.310800063772373 7.019372699745964
28.996236010088126 23.860184112985138 7.299207309134345
nan nan nan
nan nan nan
24.722553712079030 20.379700575194139 2.803102998250182
28.040569752701810 23.131305911846777 1.905028807243155
23.597923066840373 19.473387592437106 0.534043636980876
19.961758453672523 16.408445946002374 -0.451039991965155
nan nan nan
24.852144977425024 20.457404154298928 -2.816176359662331
19.403336750980994 15.977820553949016 -3.086219252391955
11.875609498371544 9.786016376606012 -2.437248965326797
11.220729853675838 9.252945537464120 -2.827026075498888
8.213829108669058 6.775775082171748 -2.458265121869757
6.418084218020931 5.298190101265867 -2.229984892603319
23.639983669375471 19.287171615999355 8.175058358608220
23.533421792317263 19.213917592035628 7.013973874441711
29.155363427546352 23.820931071276480 7.318288208672000
nan nan nan
27.520202210604950 22.508987169545353 4.365359880772383
20.513529630194345 16.790129453773922 2.319214314515184
28.275654016252908 23.159841645247127 1.915495998491744
23.204813276526906 19.013217924761783 0.523642002744255
20.251294753109903 16.528327480285832 -0.456275713896340
nan nan nan
nan nan nan
14.445942227668450 11.811240997556505 -2.291143656016773
11.605456713939386 9.495574244435810 -2.374988048240785
11.208908485153509 9.177652674609629 -2.815959153767048
8.177127634948409 6.697669345845111 -2.440269037522248
6.436539251630652 5.275754528120018 -2.229984892603319
36.894490444603726 29.887232659781407 12.722508981059509
27.153267045433871 22.011832581462677 8.069894123531814
29.015736530981616 23.538435074800692 7.262571982022048
nan nan nan
26.763404893610229 21.734521370377756 4.233253512521204
20.732816553659625 16.849102967604853 2.337342709006697
28.514376331094741 23.189536817703861 1.926172533565305
23.140739967957114 18.826096537330656 0.520709998462791
21.272107813685214 17.238111288445765 -0.477916697878572
nan nan nan
nan nan nan
14.487083143148528 11.760743290753176 -2.291143656016773
13.923001819850851 11.310882305521893 -2.841162754060673
11.213455696253265 9.116178396230161 -2.809090029933492
8.150564884837724 6.628509853673945 -2.425422267935553
6.414460257259248 5.220330373489300 -2.216008664167783
37.824235990296074 30.433210944440038 13.008245206852692
25.180518995114166 20.267373798909261 7.462526276803377
29.024333930799319 23.377895013085322 7.244254318465901
nan nan nan
23.430134611310155 18.892235449029524 3.695565969417692
24.754744629524016 19.974560853284107 2.782882865932725
28.786280782169190 23.244195722126005 1.939047178801069
21.700501733747238 17.528865660207465 0.486922139600210
18.244192361943639 14.679195497945242 -0.408735358761180
21.037267727376232 16.938592144173104 -1.415478272546659
25.189122757164625 20.296041295618753 -2.830121278501956
nan nan nan
12.878433751904186 10.387875399702942 -2.620590158353947
11.367422706140134 9.175630021426624 -2.839619469193740
8.134232719787365 6.568187770376191 -2.413724813109672
6.441659149902854 5.205193009363020 -2.219114492709013
30.129532351517575 24.060700604084690 10.331538642402423
23.632860764768683 18.886133121193478 6.984280335268321
22.912948173501889 18.323926710704296 5.702899253814172
40.219851869738001 32.187616198209781 8.158995958638281
23.607513562815548 18.899658812480432 3.713115154868033
20.909026291334563 16.751288797643763 2.343966545455519
20.709617095397707 16.603404143772504 1.391089716937447
20.934773529320381 16.789920713165696 0.468422588776689
18.754657154919094 14.982367643407887 -0.418997373746303
nan nan nan
25.284708350807875 20.227905454112452 -2.832910262269881
19.900408541230227 15.926133054573752 -3.129604738644187
11.289495759060243 9.041356996694358 -2.290826306049141
11.872760842385290 9.515277742102848 -2.957539428336445
8.052200702602084 6.455645311847997 -2.382681567610218
6.440200601528590 5.166959642748610 -2.212385197536347
30.453162027087433 24.162851606327798 10.416431289196050
24.043371734510814 19.083886792173306 7.086858016049123
22.892108999248769 18.183126558858170 5.682673500304257
nan nan nan
23.266078366036197 18.500045318768610 3.649743096297357
nan nan nan
20.812764098622736 16.567085123675650 1.394125202399538
23.272370079162751 18.538220837370599 0.519348710760683
20.821886283635120 16.520982221412559 -0.463954772728745
18.746405439343842 14.884872546985079 -1.254492871143363
25.298610559230600 20.101804970996287 -2.826983671763040
24.403712783680877 19.397685193008343 -3.827672337668872
11.727545624372476 9.328511003986504 -2.373423703590383
11.590898796196695 9.226425000858367 -2.879689358222814
8.055270545889897 6.414340745209357 -2.377282742305965
6.357584481032835 5.066115718927645 -2.178221083582815
30.341176836431973 23.893306075411701 10.348103061288985
21.761916678848966 17.149554014779550 6.396708181322145
23.007853690178973 18.144441479394892 5.695648511989862
22.183641192992251 17.500732030966770 4.475277175870925
23.156010187583131 18.280953613715059 3.622444363374604
nan nan nan
20.793685712123583 16.433652176044706 1.388996278687729
22.507229736209368 17.800666413232175 0.500884064750037
20.637521108640865 16.257632158323847 -0.458579431546062
nan nan nan
15.945724594290988 12.579623459310087 -1.776931283139255
15.495565159868457 12.228879789228737 -2.423737501641573
12.333621464940325 9.740507305126902 -2.489185207720154
11.208696187436681 8.858449485167350 -2.777034118710233
8.042451768226764 6.358385981587001 -2.366934993806148
6.375229792456513 5.043892743150891 -2.178221083582815
24.440266237831228 19.108571274564483 8.312750090602762
21.711036782753869 16.980835372361003 6.363415425279253
22.053835138253529 17.261358812650286 5.443780638092823
22.117074248961622 17.323308789111231 4.449621923604327
23.263484416786664 18.227792326903671 3.628781569231671
25.881011555432345 20.293305252614140 2.877359691071187
20.767346001492747 16.289533112652546 1.383239323501005
22.825571697084335 17.916841648655900 0.506503739622842
18.806547737219766 14.703860193998143 -0.416693656096581
nan nan nan
25.407294856118842 19.893236610455126 -2.823148819082144
14.536977543376709 11.386160213126448 -2.267257264709364
12.359911131532989 9.687925255847913 -2.487307994139671
11.347675950674480 8.900913151679376 -2.803365760072196
7.961450780110236 6.247063723735852 -2.336341650415382
6.345052669082470 4.982313828989869 -2.161656664696253
24.475034613611726 18.991625698404722 8.300844414528045
22.161130709847235 17.208527730705928 6.477690560885937
21.884520921955403 17.005983831033383 5.387301175461366
22.361330661126487 17.382762616833801 4.485914719493660
23.386509108289463 18.192793469014624 3.638043639330462
nan nan nan
nan nan nan
nan nan nan
24.320159224592771 18.878250089531122 -0.537394499016834
18.525262516076353 14.390392425146173 -1.229371612146751
25.408940697441029 19.751847114208122 -2.815653425205844
15.358588558265261 11.943424975026145 -2.388882869427701
12.256465395186936 9.537962904467500 -2.459775528292590
11.217584726234417 8.735796222804179 -2.763677489033875
7.906343504679613 6.159354069404518 -2.313846544980995
6.336504936428973 4.939942987060382 -2.152856817162768
24.528697494802927 18.903283671549616 8.297738585986815
22.264278295969014 17.164381141600238 6.490287819929193
21.912661152069816 16.905504448804031 5.379668815646304
22.378197512036671 17.277127575026167 4.477780127311568
23.471866385457528 18.128035931177507 3.641455980945806
nan nan nan
20.702014021089280 16.006107029809950 1.371411397390100
22.443996615624489 17.365471025821307 0.495334199502981
nan nan nan
18.847409221453397 14.535431771937953 -1.247375181094323
15.834269713448151 12.220466076386119 -1.749913002887481
15.210059577066268 11.742953810081282 -2.359390488323655
12.339706038810592 9.533768897990035 -2.469787334055165
11.313242870954211 8.747022200944269 -2.779705444645505
7.912380764809495 6.119795801050620 -2.309347523894118
6.304823507769777 4.879956078177434 -2.136292398276206
27.060667385074005 20.696927240150686 9.128547720765907
30.055306062938463 23.003962511312753 8.737998754933093
22.122722763796610 16.944709997090264 5.416685760749354
22.522907603452449 17.257466148614363 4.494049311675752
nan nan nan
25.472477431969807 19.545719384235436 2.809029588757023
20.849650193053353 16.004281588134269 1.377482368314282
22.458487690423155 17.251694190978551 0.494321959929618
21.352854145503425 16.337303383593458 -0.469295209098554
19.005867229758834 14.552118693888858 -1.254492871143363
15.845200329778947 12.140883989030687 -1.746426773177574
14.864956997345356 11.393921652129967 -2.299674510055133
12.040625037219433 9.235758169601041 -2.403459120878107
11.290756995288438 8.666833861605907 -2.766730432959900
7.922875256694479 6.083831152082440 -2.306198209133304
6.334073878694229 4.867335258484647 -2.140433502997846
26.079602264612692 19.817026739001978 8.776553819426478
22.200632654674518 16.875638913561918 6.438099175321416
21.928784292304993 16.681076229065845 5.355626882228860
22.396257882341452 17.049025022819102 4.458069384716500
nan nan nan
25.573601006976350 19.488917889675911 2.813038752923415
22.818150586139723 17.395363288247662 1.503716694772262
22.763590776413814 17.366337086414983 0.499767110738051
19.018637267521768 14.451633097996391 -0.416937989786703
nan nan nan
21.598019992757511 16.435417719043006 -2.374471055417199
14.926351491966775 11.362600905153080 -2.303330590357287
12.044472595551847 9.175429295742987 -2.398140349066739
11.386571131983874 8.680525649990557 -2.783140006562283
8.008087612539404 6.107156967586636 -2.325094097698189
6.345572573486788 4.842787889406072 -2.138880588727231
23.960253731130191 18.068462675617862 8.040990093245115
32.183583262853233 24.287314969937025 9.308474628749135
21.629673992134048 16.334669007092494 5.268617980337155
22.455442946733662 16.964442643396495 4.457443646856339
23.752300260737730 17.957207721356809 3.656080302154424
nan nan nan
31.029460414132739 23.484427727861114 2.039427542875035
22.737991471908948 17.221574872458437 0.497882250842824
18.736916352582050 14.134666805615971 -0.409677788708793
nan nan nan
