# This PCD file was generated using the MATLABÂ® pcwrite function
# from Computer Vision ToolboxÂ®.
# .PCD v.7 - Point Cloud Data file format
VERSION .7
FIELDS x y z
SIZE 8 8 8
TYPE F F F
COUNT 1 1 1
WIDTH 1000
HEIGHT 1
VIEWPOINT 0 0 0 1 0 0 0
POINTS 1000
DATA ascii
nan nan nan
nan nan nan
20.658383944176155 32.240593003937683 7.443077291648260
19.760596974694437 30.863169140515588 5.804344390852726
nan nan nan
18.790588188864870 29.382023861375028 3.051322553595512
17.814770277216155 27.866894323934726 1.733366870766299
19.268188083242240 30.163610615686345 0.624761245641875
nan nan nan
16.637326095145092 25.955138746899525 -1.615715641132162
nan nan nan
17.711664402492858 27.663035429254222 -4.033144050649951
13.383719727121353 20.919494248683971 -3.933388188971565
12.054991695298186 18.857115439676640 -4.350445094585222
7.625634565529966 11.933047580479130 -3.269438623833734
5.288896789935053 8.282751537368728 -2.633224964873046
nan nan nan
nan nan nan
20.033852862606139 31.026957767962521 7.178997642047122
18.999671116603938 29.447845010265397 5.550607688557472
18.605939645312898 28.848646546908100 4.214973111010431
18.759203695290029 29.108586200315251 3.029707929394093
16.194293247265726 25.138258685983001 1.567147873738710
17.684862339506161 27.473115491985318 0.570309737557551
nan nan nan
16.745164102394032 25.923748639126774 -1.617390391731936
nan nan nan
18.036275948603208 27.954665922226791 -4.084816652253733
14.171666375191210 21.981695150558284 -4.142384634265314
12.042063369009496 18.692788839937293 -4.322205363269493
7.618708689804313 11.830989392090098 -3.248743126834098
5.328230426393424 8.280485182757563 -2.638401345775097
nan nan nan
20.217686090523397 31.037544690243191 8.551739281936372
19.357048187911786 29.739014195242699 6.897363564871342
19.092133447018956 29.343215343140681 5.544663178885943
nan nan nan
19.781864407188454 30.449763741469521 3.176826823152140
17.020575842620328 26.209388403999917 1.637801414666684
17.842040943470106 27.495340918029921 0.572124787827028
18.399181568942996 28.235058253454788 -0.588250811375078
16.933792373522394 26.006139666232887 -1.626392176205723
nan nan nan
18.086662378037520 27.808495902086129 -4.073117195286839
18.288808669178803 28.140785626222161 -5.315643122067046
12.089109681569726 18.615596442360889 -4.314573003454432
7.668386708320304 11.812793179603030 -3.251442539486225
5.352236252984798 8.251176196705675 -2.635295517233866
nan nan nan
nan nan nan
16.708628114715175 25.475195281691668 5.921947980506445
19.053642931566969 29.061635169356492 5.503990217975483
nan nan nan
18.718213273723016 28.593534892912338 2.989964910701161
17.048529700545750 26.052884193666028 1.631730443742503
17.997005171581804 27.523270477513744 0.574009647722255
18.453724753914436 28.103799037907457 -0.586854618860095
17.197582897530381 26.210715106341645 -1.642930338378493
nan nan nan
17.800602689062657 27.160768356829660 -3.987321177529616
17.575261518050155 26.837364041877045 -5.080991424506699
12.199166836009566 18.642280972041501 -4.330600959066061
7.792782690383387 11.913157694981138 -3.286534903963867
5.403201877040552 8.266401358207494 -2.646165917128172
16.892763155886037 25.522181093313748 8.200940263118472
nan nan nan
16.754246789090146 25.341725312784320 5.905156788913309
19.199239964616400 29.050932852798184 5.515253499458380
nan nan nan
19.024800958551094 28.830721625724198 3.022038224032299
16.520349132538641 25.044911999323006 1.572381469363004
nan nan nan
18.512458142741497 27.969273282376601 -0.585458426345113
17.339809206131719 26.217473331805671 -1.647326558702900
nan nan nan
14.676516503833794 22.215895943106926 -3.269267006186486
13.320426702969669 20.178489584758669 -3.829515704184852
12.064180556554799 18.289343521666151 -4.258856776804480
7.774175106778521 11.790155411300137 -3.260440581659979
5.424960387643847 8.233636722805018 -2.642024812406532
16.956024225966857 25.424485769138492 8.188516948953552
22.788896146314240 34.183431507699936 9.484836255354724
18.982487467427333 28.495350217284471 6.655417758733884
20.509276259002139 30.798921058043330 5.860660798267209
19.362195102646378 29.098353286267795 4.291507058668863
19.023833191160719 28.611498130854322 3.006001567366730
16.154393328320431 24.305112342754121 1.529465985243790
18.197920402131089 27.400446157990473 0.574149266973753
nan nan nan
17.413498218792260 26.130194142229513 -1.645651808103126
nan nan nan
18.291497122817418 27.478861496778176 -4.053130622968395
13.522063796378305 20.329240955586201 -3.867059975794507
12.156203858089322 18.289631459840205 -4.268778844564061
7.794793156447399 11.732106852415669 -3.251892441594912
5.462216161718259 8.227525541843859 -2.646165917128172
nan nan nan
16.853373826975826 25.108855299857218 6.981580922616194
17.009435608845941 25.360488821574290 5.935686228173556
19.068612538124871 28.452115419330770 5.424834378665126
17.743169795347089 26.484427336230201 3.914199571486527
19.324212759102771 28.866164385145016 3.039120749610840
17.221433235976264 25.744505164834159 1.623252018831146
16.674384848858242 24.936133010536391 0.523607097931380
18.032048569100670 26.854763681168940 -0.564620253058996
17.488825754343502 26.065408005794563 -1.645023776628211
nan nan nan
18.189856614371390 27.140931141079484 -4.011695046210645
13.400101759175490 20.009277564761856 -3.814185126610909
12.161192825031701 18.173033451274510 -4.250461181007912
7.854365846164383 11.741575705247223 -3.261340385877355
5.454756350327441 8.160536164202917 -2.630119136331816
20.994257056936213 31.020048756528158 10.036484930985550
16.803363887197811 24.846478049306285 6.924893256921540
nan nan nan
19.310986631028282 28.586645593431466 5.463942994925183
17.831067105949884 26.415749449183863 3.913224616739285
15.445184346598870 22.898427463751432 2.416480123421570
nan nan nan
18.339020976120398 27.219448554276582 0.572892693710269
nan nan nan
17.539435348007590 25.944635047898572 -1.641255587778718
nan nan nan
nan nan nan
12.922938830959318 19.151833584712694 -3.659315006221080
12.180652306973474 18.065360121241834 -4.235196461377789
7.965009831582095 11.817508698948716 -3.290134120833369
5.413063346833566 8.037294254076224 -2.596472660468488
23.864268786455295 34.983709770021996 11.347144575384714
17.069913444308945 25.032941396793589 6.995077985876827
19.063166657748106 27.977012940437856 6.580620632546277
18.517635048664818 27.186588949666888 5.209893423699850
18.526573138723968 27.220128124051367 4.042893598122363
15.517307424886067 22.815888900195034 2.414039762624636
17.694832970200032 26.037156036547287 1.649838684602561
18.290576575384129 26.923872958263523 0.568145639159327
nan nan nan
17.643425780283945 25.883698659755098 -1.641674275428662
nan nan nan
nan nan nan
14.622039972813013 21.491464215765422 -4.117042250928796
12.207984098080415 17.956760792692748 -4.220694977729171
8.046473676461181 11.840026464834255 -3.304980890420065
5.455822704735041 8.034030320256567 -2.602166679460744
17.343273273615761 25.234619199844442 8.204563729749907
17.269747541908600 25.137036210503364 7.040968000962975
19.225155345765028 28.004175604018993 6.602754476009956
18.595655205042089 27.097353605061727 5.205200389748642
nan nan nan
15.943727280607080 23.267799130977181 2.467727700157193
17.900707120889123 26.143323388149668 1.660515219676122
17.078775146491481 24.952263128232147 0.527795675476328
16.394963146307894 23.854819402629982 -0.505247166359358
17.826385459759106 25.956957757900199 -1.650257372252505
nan nan nan
nan nan nan
13.078616906662132 19.079400344376342 -3.663695171242207
12.129689521173987 17.708333890529282 -4.172229492903528
8.028301470667024 11.725038580195520 -3.280686176550927
5.479469961452000 8.008559487909496 -2.600096127099923
17.487330677464318 25.264332958108692 8.233033824711185
21.691887610481505 31.362137168465839 8.803684462801501
nan nan nan
18.674850144352380 27.040434574570156 5.204887520818561
17.091696144785814 24.757330685728757 3.693859798610020
18.906254825179438 27.406176566987934 2.912919234112231
18.102955181228836 26.251528637877009 1.671191754749682
nan nan nan
nan nan nan
17.869224573842637 25.844970363496330 -1.646698527227985
nan nan nan
26.190578904280869 37.922908610085869 -5.658881091674617
13.075660583949485 18.947173291220349 -3.646174511157701
12.094984232469152 17.539226152565771 -4.141318435652528
7.913572361240209 11.479947396900236 -3.219049587660708
5.490356078702205 7.970623476499020 -2.593366831927258
17.554417654613090 25.173029375331939 8.223198700997289
21.990631270356378 31.558031177453948 8.880167821278414
17.987940462072253 25.833120972653461 6.118862863735038
18.751262727679062 26.939380370787806 5.198630142216953
16.756353677292886 24.091284656914148 3.603189007116590
15.908937494230537 22.889961236681664 2.438791993564971
18.139780078102909 26.119173133684022 1.666586190600303
18.550778780825752 26.720916332642471 0.567796591030582
nan nan nan
17.989012562409471 25.825047854808076 -1.649419996952618
nan nan nan
nan nan nan
13.148484843987658 18.911146578699601 -3.648051724738184
11.997069088709251 17.267950440801179 -4.087128680965590
7.904685637063161 11.381827774804556 -3.199253894878448
5.524753854935323 7.960932644220587 -2.596472660468488
17.568724053801230 24.988493948304029 8.184893482322117
16.436418388951800 23.395336378520806 6.600963738666375
18.084743599007908 25.760648320704675 6.118099627753533
17.397789841570152 24.800527681539666 4.798157911713961
16.030402568154852 22.859804103395472 3.428184629986798
15.422745809029822 22.009607952010185 2.351287627846322
nan nan nan
18.670443114202762 26.674063472058247 0.568320163223700
22.378095619000554 31.840809352846460 -0.679317468164823
18.115589509548606 25.795011784897891 -1.651932122852279
nan nan nan
nan nan nan
13.457981541025370 19.198586675110047 -3.713441331125000
11.844771376966021 16.909804411281211 -4.013094790759490
8.008688916370540 11.437593112532252 -3.223548608747585
5.478862502862115 7.830442660964985 -2.560755632244340
16.970244374854644 23.959067817374091 7.867063694936220
16.567519153287858 23.407808048946489 6.620759431448636
18.015844928888566 25.472960714817365 6.064673109048099
17.409008621426604 24.633177439298624 4.777508562328650
16.552226271837224 23.429533483425558 3.522267763095572
15.539696322921328 22.012606876759751 2.357388529838658
16.493304202881600 23.380749149574289 1.499529818272826
18.898270473458414 26.799935274971300 0.572404026330025
16.736830174539680 23.638272937564150 -0.505561309675229
18.203213412930229 25.728358542755100 -1.651722779027307
nan nan nan
nan nan nan
14.014906994005287 19.845328784665693 -3.847974971059599
12.139173801489887 17.202001098916838 -4.092471332836133
7.990152302383957 11.326762930637850 -3.200153699095824
5.521744898171569 7.833376034831000 -2.568002565507211
17.046863972078096 23.916476411049498 7.869651885387246
16.737093779014238 23.490547035783372 6.659001110687092
17.988746354652744 25.265901505276375 6.028801017917310
17.552728197761333 24.671719889734486 4.795654960273318
nan nan nan
15.758814144426360 22.174805690462495 2.380049022953049
16.636059853780267 23.426524120849191 1.505810133021980
17.787798261769698 25.057639215822736 0.536382259443472
16.850471747217931 23.640941273274297 -0.506748073312964
18.307125048988024 25.703580769227209 -1.653816217277025
nan nan nan
nan nan nan
14.071460772169024 19.793151872058043 -3.846410626409197
12.143127621894951 17.093357860427812 -4.075680141242997
7.900454044523268 11.125241124786438 -3.150214565031485
5.565332641908575 7.842773610723095 -2.576802413040697
17.094961296820482 23.798920131706549 7.851534552230070
17.092847400555616 23.813516088935994 6.767427518880835
18.058523246571653 25.177429922915476 6.022695130065260
20.943704184994818 29.221519055768539 5.694214527464403
17.052934867243735 23.801729775572735 3.595145630451851
16.331363928501425 22.811407760824988 2.454480027259549
17.040791526390798 23.819887966717747 1.534908924693057
26.455046802047395 36.992925168241477 0.793840159206278
22.731922638746969 31.658131532469444 -0.680294802925311
18.389749654119829 25.629783855528785 -1.653188185802110
nan nan nan
33.044495746466367 46.105042050557799 -6.964832975604178
13.920779278768201 19.437170624824699 -3.786652660763828
nan nan nan
8.042420894008918 11.241823150045684 -3.191155656922069
5.585934254823498 7.813869744993530 -2.573696584499467
17.084340556876032 23.618443570022428 7.810641143103871
17.205556325706084 23.794763964238463 6.779124973706716
18.091107987048691 25.037857077645857 6.004377466509112
17.867927608154726 24.747170855382564 4.834450707603295
17.271840075871577 23.930385756277243 3.623663056808655
16.926025958263612 23.468513776354499 2.531525703848479
16.955112987419383 23.517494298932309 1.519417481645145
nan nan nan
16.808832572624986 23.237564380833881 -0.500604826247040
18.380821608528770 25.429466365395157 -1.644395745153295
nan nan nan
nan nan nan
14.283269653107697 19.796958107253296 -3.866434237934346
11.947573761499434 16.571815123297608 -3.971116811776651
8.079334425299104 11.210519472284069 -3.190255852704694
5.549954109821940 7.706535553686420 -2.544708851447984
17.069512619582888 23.416728435733674 7.764571353075622
17.924151488269381 24.607200859498374 7.028370741919718
16.704159925961100 22.949161885527836 5.517432910308170
24.543607617894523 33.731830334011505 6.607166065439191
16.127195823149528 22.180894540126715 3.367249958284225
15.969080108788058 21.979553148291725 2.376911416214134
17.116911128685977 23.568056088321050 1.526535171694186
nan nan nan
nan nan nan
18.535311477255885 25.455567230891408 -1.650257372252505
32.060275003011846 44.062461138551981 -4.767419128296902
14.435640952740004 19.847093489496309 -3.013341385035676
13.931868734815188 19.168535933439550 -3.753175685245219
12.093028202493587 16.650735919074471 -4.000119779073886
8.055448251602314 11.095516034683252 -3.165511236726869
5.565476901601532 7.671478715917988 -2.539532470545933
16.822413210566527 22.900940498597727 7.613938668825955
17.400278532233894 23.696275911538127 6.787223211663095
16.761957486820165 22.843699383620930 5.507510842548589
nan nan nan
18.003044109447995 24.562042791505952 3.739195194356735
15.990961893357513 21.832883884827481 2.367672907482882
17.065694707442759 23.308777943897937 1.513974542195879
nan nan nan
28.232359995834507 38.433700819659222 -0.832409977432674
nan nan nan
nan nan nan
nan nan nan
14.014707771381824 19.127647739874117 -3.755678636685863
12.149914421176998 16.594674997734938 -3.997830071129367
8.099143424412933 11.066076172617457 -3.165961138835556
5.638228060963305 7.709306699106079 -2.559202717973725
18.149865957569713 24.519185067415879 8.174023082427810
17.042512951170519 23.040043283194255 6.616260410361757
16.855598302135309 22.803995502102048 5.512090258437627
18.209384763486980 24.644535105526135 4.853222843408123
18.083955532397216 24.492662936937954 3.738220239609494
16.257519332579509 22.035055096509488 2.395737056647627
17.162364949652183 23.269961416664469 1.515335277058196
nan nan nan
nan nan nan
nan nan nan
nan nan nan
14.484029017140253 19.609808117261672 -2.993354812717232
14.452076723121877 19.580846752549643 -3.854545218591289
12.210097241509889 16.555322797130859 -3.998593307110873
8.190917179219113 11.109889794613661 -3.186656635835192
5.627291017689728 7.638252571574268 -2.542120660996959
17.943598452375031 24.073184138942370 8.045131197966754
16.943525000101111 22.739764479026363 6.546975485623847
17.291526022769734 23.223729464598975 5.628102127626566
18.269784126038051 24.555488012250883 4.847591202666674
20.012693001782289 26.907848162406001 4.117477636286313
16.373556505196891 22.030942157379307 2.401489335668973
17.416196543482876 23.442379674865375 1.530512704368649
nan nan nan
nan nan nan
nan nan nan
22.842439697632081 30.690175808395235 -3.347129144481065
14.459965547639055 19.434904551311284 -2.974343195146029
14.008826659072067 18.842281786792189 -3.718760102936368
11.632058540014281 15.656870431754097 -3.791374738131946
8.252885776685066 11.112520125332006 -3.195654678008946
5.634347509848371 7.592190579426878 -2.533320813463473
17.529347242366622 23.338413904889212 7.820993904907971
16.852008882083844 22.452929061815748 6.481289777755439
17.332436136518055 23.109828840676165 5.615127115940961
nan nan nan
20.221948970576296 26.991930323417250 4.141120288906912
16.409761558528249 21.919425191510836 2.395562745162132
22.040533678548673 29.451471542415309 1.927847284165079
17.235646845904213 23.047749959889082 0.502350066890769
nan nan nan
nan nan nan
22.908793857865895 30.556053826878923 -3.341202553974223
14.520574906828731 19.374780523763636 -2.972880763025168
14.095827405240268 18.821727335749557 -3.724391743677816
11.520780633360927 15.394542977880437 -3.737566601435760
8.289290748732915 11.080523641929380 -3.194754873791571
5.681635198691108 7.600328147455830 -2.542638299087164
17.640437771631266 23.324839773235677 7.836005409523918
19.438210262633021 25.711247196873639 7.441380877695054
17.389330284707217 23.017856955185582 5.607494756125899
20.437902003000211 27.072824478818294 5.372585267341689
nan nan nan
16.396204265062831 21.742702822663382 2.382489383749984
17.439967446427541 23.135216223218471 1.518370762520286
nan nan nan
nan nan nan
nan nan nan
nan nan nan
16.401315821378876 21.725808470393577 -3.342388612229575
12.428140169785806 16.474744398426139 -3.268541712550584
11.735170814844656 15.567443864320287 -3.789466648178180
8.318536244379562 11.039070446565590 -3.191155656922069
5.680240791111191 7.543411210127116 -2.530214984922243
17.782014594159666 23.333781224055031 7.860852037853760
nan nan nan
17.704972174331761 23.266359853414087 5.683055118295011
19.886390409933426 26.142459854726880 5.202384569377918
nan nan nan
16.891393034188006 22.237465784428743 2.443149780702354
17.512163440476112 23.063063767754777 1.517638059132885
26.073645237877432 34.363211168873057 0.752931718517285
nan nan nan
nan nan nan
23.116730319744224 30.389034002600788 -3.340505308032243
nan nan nan
15.528384948471592 20.435664169080731 -4.065106008535439
11.817933954541793 15.563911639080819 -3.798625479956254
8.375870416806098 11.034801759507237 -3.198354090661073
5.701867769783418 7.517380771519676 -2.528144432561423
17.854056189340401 23.276269475836752 7.860334399763556
17.613547662566788 22.971020288949170 6.682845922447542
19.439392276115715 25.370563229375119 6.212740889460299
18.702681633457548 24.426730666732290 4.872620717073111
nan nan nan
nan nan nan
nan nan nan
25.026858850605095 32.757464272553278 0.719562717409199
nan nan nan
nan nan nan
nan nan nan
13.891448956491454 18.142996222737164 -2.805676023873306
16.010185275091295 20.925310805259521 -4.173045789413199
11.886174832204723 15.546471313784012 -3.803968131826797
8.378100008427189 10.962064587184909 -3.185306929509129
5.711521720098502 7.478472393864264 -2.521415137388757
17.936377872034207 23.215334114989002 7.860852037853760
17.679330151406180 22.890889927270916 6.677447097143289
20.842483862329441 27.005967604789692 6.630994207325686
17.547695983772844 22.753270235723196 4.550991456950396
nan nan nan
17.075196086981610 22.164590559273538 2.447856190810727
17.818631845027717 23.137965036561237 1.530512704368649
19.514041296642549 25.357804729873941 0.558511910805947
nan nan nan
nan nan nan
nan nan nan
15.217903644472591 19.732338328865598 -3.059651735529633
16.104835331166502 20.897461039339863 -4.178677430154647
11.880476221779816 15.427112801252834 -3.784887232289143
8.346177764836238 10.841646502752445 -3.158762705096553
5.714033496425569 7.427865840714259 -2.511062375584656
20.093816239448536 25.830239721267525 8.768789248073404
17.861610515759640 22.969050123659017 6.717488384816497
17.667334339160981 22.735594236834878 5.596809452384813
17.607623825146856 22.666918594602045 4.545985554069110
nan nan nan
18.650616535634423 24.044229955742018 2.662259317969966
nan nan nan
nan nan nan
17.599749728204763 22.624162035549624 -0.500325587744044
nan nan nan
nan nan nan
16.792952517240494 21.625953222876809 -3.361887707174398
16.539765659835691 21.315254599794944 -4.273163847038946
11.822094075373832 15.246445739382441 -3.750159995130612
8.343880581967866 10.764622813321283 -3.144365837618545
5.731535892229851 7.399712850795156 -2.507956547043426
20.314680015463566 25.917586379508361 8.823658885635137
18.017381929454331 23.003213690684639 6.745832217663824
17.556610936750300 22.431061620814614 5.536895427836577
17.801060341431516 22.751560675654982 4.575395233496673
18.823325116797520 24.075430377579202 3.752357083444491
21.096936557938360 27.002847412241461 2.997983239033946
17.913015574821323 22.935864491085646 1.525174436831869
33.450903163981472 42.861443155222311 0.949026957246603
nan nan nan
25.315177140647680 32.332102741354774 -2.152054520709850
nan nan nan
16.675110602047223 21.320148961976503 -3.323376994658372
14.884298469676224 19.044181160203582 -3.828264228464530
12.002127233534551 15.367550074597808 -3.790229884159686
8.398194487656296 10.756936309330818 -3.150664467140173
5.815557666768512 7.454295317504046 -2.533320813463473
19.095445673610396 24.187706172112755 8.257362814950822
21.426350415890859 27.149944617171773 7.984862624989833
17.619255635569186 22.341897724071277 5.530789539984528
17.683766638485984 22.431751042678989 4.524084728963477
nan nan nan
nan nan nan
17.964846236115854 22.829247396172754 1.522452967107236
28.606594675978503 36.378619996321859 0.807802084356105
17.379551478810910 22.014227463333455 -0.489574905378677
nan nan nan
25.384940604436302 32.200643647526697 -3.587330371493610
nan nan nan
14.850117745276123 18.857584928982899 -3.801670369407690
12.276908241168078 15.601167514269546 -3.858921122495242
8.408647822227870 10.689323747374566 -3.139866816531668
5.841646084719247 7.431411379792090 -2.532803175373268
19.211021081386519 24.160217678907983 8.270821405296152
nan nan nan
17.736210682117722 22.329452905385018 5.543001315688627
17.737393299720225 22.338946147107354 4.517827350361867
18.543532753184003 23.370966998755581 3.663148724071923
17.771679671886485 22.414241922168365 2.502589997256257
18.224311723318394 22.993358932123911 1.537630394417690
28.795483438155649 36.356921798902199 0.809547324999833
17.798545375677868 22.383856059631306 -0.499173728919183
nan nan nan
25.482320008478155 32.093113387846486 -3.585238633667667
16.666810363689276 20.998149987303677 -3.291690965373034
14.863068259293415 18.739084018155079 -3.788217005414231
12.138615250949863 15.315120902312023 -3.798625479956254
8.396291546372069 10.597282494578121 -3.121420830075471
5.831575787555392 7.365536727113478 -2.517274032667117
19.172616682990750 23.931337531158867 8.216469405824624
18.195805246807929 22.720202978560533 6.720187797468624
17.963911334572501 22.446702745194230 5.588413856588244
18.757843093118598 23.455534036175326 4.756859212943341
22.055159390742759 27.588496475424499 4.336842454415578
22.106669151216114 27.672729079686306 3.098735277650239
18.239667937965912 22.848437388923898 1.532187454968424
19.678594894026624 24.659776072791569 0.550693232722044
17.590398353001405 21.956406225274385 -0.491075812332283
nan nan nan
15.687455103595456 19.609184349838944 -2.197021963182967
16.195663597880873 20.251685488183902 -3.183958465802883
14.537024885337800 18.190673699299623 -3.688098947788483
11.354246392229133 14.218128542096268 -3.536835538299635
8.391308080694229 10.511610076728992 -3.105224354162713
5.859737375373048 7.345623662720628 -2.517791670757322
19.062417442891025 23.615877750980886 8.132094397121202
18.210158679320127 22.576158563664880 6.696342985708173
17.851187594964490 22.146937381362672 5.529263068021516
18.702395467376377 23.211272012068548 4.721192154914168
nan nan nan
nan nan nan
18.348324370907552 22.812558622843376 1.534280893218141
19.785850348038625 24.617431894363964 0.551286614540912
17.570241764700071 21.775039319206666 -0.488388141740942
nan nan nan
nan nan nan
16.291160822805107 20.225948126501031 -3.188833239539089
nan nan nan
11.435799440793236 14.218183626392443 -3.546757606059215
8.393758860773092 10.439730544306506 -3.092627095119456
5.876872827528477 7.314582695576002 -2.514168204125887
20.310262920789107 24.991772921260438 8.629026963718042
18.282709440204329 22.504893069526471 6.694093475164735
17.859092846982808 21.999133603984983 5.507892460539343
23.612940795531930 29.097198057482803 5.935123603626359
21.544535693137004 26.567340678425357 4.199861312428193
nan nan nan
22.523932187031853 27.814739811753963 1.875720671747107
19.925762326126648 24.615050227021513 0.552787521494518
17.989179177924054 22.135680015957032 -0.497882250842824
nan nan nan
nan nan nan
16.096535076865404 19.842135612152010 -3.137160637935307
15.482182543618716 19.098447868764350 -3.893966703781427
11.473002670005846 14.162923419439117 -3.542941426151684
8.343076068392621 10.302840913613686 -3.060684045402627
5.863482338042573 7.245967858293398 -2.497603785239325
19.281455479660387 23.557335241771050 8.156941025451044
20.739133506496859 25.347294434067166 7.561054838605991
17.909678815632031 21.904741892934187 5.499878482733528
nan nan nan
21.569333413166888 26.408951513648610 4.186699423340436
19.301202120694995 23.648752948642855 2.670626269273741
20.623886385933353 25.287383073938354 1.710129706194433
nan nan nan
18.367780901553807 22.441043042717645 -0.506189596306971
20.944947979903205 25.607958250445812 -1.733785558416243
nan nan nan
14.640941117758851 17.919616908857133 -2.841261872147608
15.247673594694536 18.675521654379516 -3.818565291632035
11.545951497543930 14.151691615732908 -3.550192167975993
8.265676066138660 10.134720155949543 -3.019293051403356
5.922912761253075 7.267386449789353 -2.512097651765066
18.911366831983273 22.941322447181367 7.966450208255589
20.746254509353378 25.185125661177747 7.533160907867351
19.307303504316724 23.454975137282712 5.905156788913309
nan nan nan
19.203270032871771 23.353502296989465 3.712383938807602
nan nan nan
20.689211194738771 25.187457931862944 1.708245611769686
23.467665818457100 28.590345457045952 0.645634323740866
18.111456816423470 21.978768512245257 -0.497114344959584
20.948497090613451 25.439686351694366 -1.727086556017146
34.054684584504045 41.385165629296097 -4.688978959824009
16.851668342731219 20.486380340903906 -3.257080071845971
15.340879134517182 18.663005915244799 -3.826387014884047
11.666338824182855 14.202833331204497 -3.572707629430425
8.251008744491855 10.048517623599006 -3.001746869164534
5.954332257343010 7.256666095516563 -2.515203480306297
18.993799786460002 22.878142423002217 7.967485484435998
20.774315697242578 25.040564159944331 7.511565606650341
19.379034948934915 23.375345957887887 5.902103844987284
nan nan nan
nan nan nan
nan nan nan
19.516336643906868 23.599583586660803 1.604934434146115
18.362558329714112 22.212302224969836 0.503048163148260
nan nan nan
nan nan nan
nan nan nan
16.923076489130665 20.427432230914793 -3.257080071845971
15.819107976109825 19.108432033736094 -3.929008023950439
11.330405856239272 13.696107926058266 -3.455169288278473
8.252502734965200 9.979107844184584 -2.989599512229966
5.979626473289390 7.235837387102602 -2.515203480306297
19.151331178144151 22.912860445820304 8.001649598389532
20.749804707328870 24.842909620446264 7.472874025303195
23.477056439032047 28.128089225615284 7.121754943434158
21.068980296250235 25.260868864508772 5.209893423699850
21.774541108860401 26.116073571257406 4.174999966373543
nan nan nan
19.611101455372463 23.554689119941873 1.606295169008432
20.297380849665011 24.387627063872390 0.553834665880755
18.376035967971198 21.993088511172964 -0.500255778118295
21.492393526129668 25.741111479618631 -1.757441410638054
nan nan nan
17.094984214004999 20.496205720391877 -3.277066644164416
15.882386841387085 19.055868916642652 -3.929008023950439
11.252630869245886 13.510621221489602 -3.417770725184671
8.288043043562819 9.954681930949775 -2.990499316447341
6.013472980784333 7.227849027979708 -2.519344585027937
19.368045581101260 23.008442732877342 8.058589788312085
nan nan nan
nan nan nan
20.852099271384951 24.824155792608551 5.134804880480538
21.883441888690793 26.061190258480902 4.178412307988887
nan nan nan
20.889219436582959 24.912457618259108 1.703849391445279
18.820340061907526 22.453072925531046 0.511390413425281
18.486169663453968 21.968591728134662 -0.501163303253033
21.548695047450519 25.626187458944070 -1.754719940913421
nan nan nan
15.376367302544747 18.305367362534664 -2.935345005256382
19.395619348410897 23.106607684835705 -4.778134300188812
11.348929213396573 13.529922151088090 -3.432653826824041
8.298950882569979 9.897318699039824 -2.981951176382275
6.020055193346430 7.184602793750792 -2.511580013674862
21.472593579989919 25.337537653228285 8.899234046805073
20.474299595902277 24.168107269135309 7.312708874610364
21.138379394565039 24.969662202336256 6.359282197909486
19.496957274235090 23.047044870698464 4.781262989489616
21.833278648724278 25.817910607726208 4.151601052439754
nan nan nan
18.960661140388016 22.452805484760482 1.540142520317351
18.889571820702333 22.376544642006273 0.511146079735159
18.873025759178297 22.270062487894016 -0.509540458342929
21.671575171258123 25.590440193257379 -1.757441410638054
nan nan nan
15.514532315095600 18.339483304219204 -2.949481849091379
18.690582503480897 22.109489183716693 -4.585407039259247
10.801895382207091 12.786843207639730 -3.253674989160842
8.251723284286509 9.771512525030147 -2.952707539317572
6.089949791728205 7.216695896620871 -2.530214984922243
20.926836203274149 24.510838344666308 8.635756258890707
23.067958854943221 27.037763621013603 8.205314658246820
20.886599229600655 24.498324035867498 6.257771812369163
19.517077475854236 22.908175619335310 4.766558149775834
nan nan nan
nan nan nan
21.116975890878141 24.829917965106954 1.708245611769686
19.023260984365503 22.375982896573642 0.512646986688766
18.922088120439355 22.170584919036113 -0.508772552459689
22.162547626068793 25.985722571664343 -1.789889703508679
nan nan nan
19.759829659785250 23.193106069006824 -3.741145103851217
14.625087015635396 17.178343693510758 -3.573276050448953
11.429114760445096 13.433914137372575 -3.428456028925757
8.297144448386179 9.756009433484477 -2.956756658295762
6.011266997440299 7.073213656599489 -2.487251023435224
25.442935822674531 29.611489395392077 10.460948164953683
nan nan nan
nan nan nan
19.290715207328546 22.490970168549026 4.693033951206926
24.150826707998295 28.167302151042453 4.555719795171223
nan nan nan
nan nan nan
18.819095781785386 21.987663491017670 0.505177356733609
18.970743509615708 22.078897426493526 -0.508109361015072
22.136703998790658 25.781767943447189 -1.780887919034893
16.697377812910780 19.460533928511069 -2.243388818324721
19.766843986562659 23.046086868736161 -3.727983214763461
14.703825954090965 17.155248101088272 -3.578594822260321
11.531070555052512 13.463038949718285 -3.445628838509646
8.300300377611283 9.694394884555770 -2.946408909795944
6.038457323429420 7.057644374207412 -2.488803937705840
25.590491384111804 29.563317263568845 10.476994945750041
19.656270453286897 22.723856124455203 6.936590711747422
27.189758337533675 31.455215403083855 8.081905808168932
19.405307527127388 22.457481953805967 4.700855674458937
nan nan nan
22.552910306378386 26.137019152266223 3.020295109177346
nan nan nan
19.342242484474198 22.439856237342340 0.517114802736710
19.003208987493991 21.961129152616351 -0.506922597377337
nan nan nan
16.887655861300054 19.543840066283835 -2.259774097961281
19.284000306643492 22.324969850100253 -3.622200624687793
15.736846239809051 18.231311841626255 -3.814497995540989
11.020189358256227 12.776025606007153 -3.279625012532052
8.365903921865737 9.702258696812084 -2.957656462513137
6.092060116554188 7.070183799862299 -2.500709613780556
23.373858614546339 26.803399269519886 9.529199602584608
19.817650050663492 22.733413021058571 6.962685034051310
27.158168685195903 31.175902805614474 8.036874885260067
19.940142434218675 22.906192879308882 4.810046931057019
nan nan nan
24.873046684880688 28.603083086041178 3.316276011548394
20.760707636612079 23.882462176710494 1.658421781426404
19.533173855792317 22.486193889484721 0.519907187766676
19.539508181748946 22.406451924011193 -0.518929853006188
20.223016755664332 23.206596987032832 -1.613203515232501
17.205943381483220 19.758323554737657 -2.292196034263410
19.364366136635976 22.244771178271748 -3.621225669940552
11.551672691444269 13.279314653713243 -2.787662167016914
11.088484577800267 12.755842342258823 -3.285349282393348
8.399261462589237 9.665651620371278 -2.956306756187074
6.130562504043915 7.059867759511952 -2.505368356592401
23.854448580068773 27.152949019168410 9.684491029646122
nan nan nan
nan nan nan
20.039593370159849 22.850776749210613 4.813801358217985
21.099619374603211 24.076453135021538 3.930773802189627
20.974475120429641 23.950514231329528 2.785323226729660
23.377741063229347 26.704178489675964 1.860019884874224
19.350849025097531 22.119871452523039 0.512996034817512
19.543708009453606 22.253968138309162 -0.516975183485212
20.309169324712183 23.141868738858030 -1.613622202882444
17.597971685231034 20.066640814026478 -2.335076659695258
19.436662497095874 22.171070604125749 -3.620250715193311
11.682564878157480 13.335491046955710 -2.807998647472144
11.206654194745351 12.801257960687499 -3.307101507866275
8.431666353268342 9.634807354864982 -2.955856854078386
6.095397425721801 6.970076748868117 -2.481039366352764
23.656397848944881 26.748099204052064 9.568022459349988
26.765297469138940 30.273952833307735 9.329170125748769
27.505140438295516 31.132674668525976 8.075036684335377
20.038124015605497 22.696827887663204 4.795342091343237
21.157262442244694 23.972887993906166 3.925899028453421
22.834414149178851 25.891447698366740 3.020295109177346
nan nan nan
24.485527981416993 27.792931099632124 0.646541848875605
19.615970680509832 22.179620629328220 -0.516835564233714
nan nan nan
17.559760775203390 19.882634413914321 -2.320783117884642
17.469656039743590 19.787569738661233 -3.240993318516492
15.505860525533251 17.575574978934270 -3.712189855404679
11.191547772446176 12.694319141395487 -3.289547080291633
8.368611501858178 9.495666914805408 -2.922114195926806
6.006055421590738 6.819727665761626 -2.434969576324515
20.780493240943979 23.323514316290922 8.370207918615522
19.875795099653143 22.323787422931336 6.900598543052403
nan nan nan
19.789040841302747 22.249794466857171 4.716186252032880
24.163124406972170 27.186896933926814 4.466023958425034
21.143814880511712 23.806481651945901 2.785671849700650
25.178707952589971 28.359461291565569 1.987510274282035
19.966642626088039 22.504788538586144 0.525142909697861
24.639533078113114 27.664525333262514 -0.646646563314229
nan nan nan
nan nan nan
17.965974147081432 20.207131702667414 -3.319964653043028
15.124965553618001 17.023686017180381 -3.606753025967563
10.633594344019471 11.976905556760745 -3.113239568563705
8.365486752352830 9.425587440058955 -2.909516936883550
6.046488177434502 6.817510054343462 -2.441698871497181
20.876681337279550 23.291964849722063 8.381078318509825
19.982240884432695 22.301874294291800 6.913195802095659
nan nan nan
19.910291107152975 22.252811070685546 4.729326747096260
22.109822215029158 24.719806131776529 4.072142240539598
24.189967084543021 27.064510928140137 3.175780954239169
nan nan nan
19.948012859081771 22.342009637701725 0.522804287235265
24.761023750186318 27.625698046298165 -0.647554088448967
nan nan nan
17.848035065141406 19.940918025995487 -2.341351873173089
17.423138570354766 19.473035767176139 -3.208332334483913
nan nan nan
11.263720372588748 12.606639198640902 -3.286112518374855
8.401547466623409 9.406527112686817 -2.911766447426989
6.129622604157952 6.867661904016456 -2.466545499827022
21.607947940267323 23.930777333152683 8.639379725522144
20.031246709922431 22.200157129646346 6.903297955704530
21.513617049689081 23.859773225190125 6.244796800683559
21.933226473145321 24.333681189584258 5.188618336454377
nan nan nan
nan nan nan
21.270342920967902 23.639698358772073 1.666586190600303
20.049945849234959 22.299007910294147 0.523432573867007
21.199454132031629 23.486610760903531 -0.552263949301399
23.228203385242743 25.752304000164962 -1.817523088404953
20.692136226676695 22.956761363308502 -2.703919763003347
15.301142149866370 16.981715437310537 -2.806650978620547
16.264564381587938 18.063628750436695 -3.849852184640082
11.361496866294805 12.627081745756902 -3.301758855995732
8.526858616758364 9.480013318885105 -2.943709497143817
6.119981272941920 6.808867588180119 -2.453086909481692
21.621168578459354 23.778022913997169 8.611427268651070
20.109858264124256 22.123705755482739 6.902398151487154
21.033311346949109 23.155869932795614 6.080701064659730
21.980858564826669 24.216016843950499 5.179858006412124
22.574277023781836 24.878501602488491 4.124789796890622
nan nan nan
21.279046054564070 23.475750727356207 1.660515219676122
19.948966467846766 22.023807622588272 0.518685519316066
21.222165199216882 23.339216312958872 -0.550623423096295
23.349297252759587 25.696558864918053 -1.819616526654671
17.687575950242788 19.479332452022053 -2.301957477451147
15.728850499605604 17.328263475746180 -2.873435378806567
15.387053320490303 16.963604750160645 -3.627402375352873
11.484174383745389 12.669722808578200 -3.323892699459411
8.530143212517874 9.414038924626777 -2.932911846535312
6.161752559776126 6.805007393927812 -2.459816204654357
20.321116274744007 22.192154196806893 8.062730893033727
21.160651881102169 23.117088264080611 7.235325711916074
25.621974479027511 28.010513676125097 7.378965469201741
21.156308717646795 23.144765455407889 4.966481396097250
22.620809747554929 24.755588061680253 4.117477636286313
25.527329082944238 27.955992504733722 3.312092535896506
21.336625093630200 23.374777782991163 1.658631125251376
20.044589131169467 21.974722039799985 0.519174186696310
21.083380010734867 23.024602283763986 -0.544933938597740
23.449639132963636 25.626685859171072 -1.820453901954558
25.080298410472597 27.427952003989834 -3.251606450429631
15.299050539810775 16.736990424941077 -2.784227019433999
15.335596377804915 16.788735480971976 -3.601434254156195
11.483328486265750 12.580258142872271 -3.310917687773805
8.725831049077076 9.562705817826247 -2.988699708012590
6.214105359187815 6.814862300595435 -2.471204242638868
20.513703068862306 22.246062943028200 8.108283044971770
21.206875680482053 23.005828884783682 7.223628257090193
nan nan nan
30.730800289877283 33.372703124614368 7.185347848227885
21.220431650932948 23.060884669812861 3.847902648674127
21.325419778087845 23.191219785237049 2.756387520137437
25.570326552404271 27.817263890214218 1.980183240408023
20.165814677284583 21.953217878201052 0.520326045521171
21.242247206372848 23.036131839191306 -0.546958417744465
23.414434031628648 25.409549289746394 -1.810824086005856
18.230721669928229 19.798002534883487 -2.354599546070733
15.448801312776736 16.782799955775502 -2.800801250137099
16.561603316814296 18.004300485083448 -3.874568830116438
11.317248683494752 12.311727521147054 -3.250622045234818
8.600931413384211 9.359998050124165 -2.934711454970063
6.273134843159658 6.831548965331851 -2.485180471074404
20.595101178964267 22.170727040195320 8.108283044971770
21.284400209220067 22.928806454541288 7.222728452872818
nan nan nan
nan nan nan
21.322388071204234 23.009967855063852 3.851802467663092
nan nan nan
26.522032786773096 28.651219154131255 2.046126545274132
20.245038665725524 21.885628196997786 0.520395855146920
21.439551072726839 23.087861259621668 -0.549960231651678
nan nan nan
18.435191717866648 19.880337841930160 -2.372030694620265
19.584178391733602 21.126788750079093 -3.537135822991000
15.904819830943056 17.169631006951207 -3.706871083593311
10.645311419346658 11.499916046849373 -3.046074802191161
8.626933727290638 9.322766617770977 -2.932461944426624
6.375638576029777 6.894712413741070 -2.516238756486707
20.990464550823894 22.446599635107106 8.234586738981800
21.744909462555569 23.261518088925516 7.351400455957508
nan nan nan
26.077114935240576 27.925170530180139 6.051510845616290
nan nan nan
21.429734169964942 22.980576388017170 2.749066437746634
26.785307317986938 28.733778293106923 2.058687174772438
20.310406240782850 21.803120901363179 0.520116616643923
21.738544876909199 23.246575239928962 -0.555545001711609
21.736681538125499 23.260853007104068 -1.668470285025049
18.499035440808409 19.810041126532123 -2.371333448678283
19.609040105041792 21.006059058938675 -3.528361230265830
16.265138769967219 17.436123670301395 -3.776640855001253
10.653260307377929 11.428221305693022 -3.036915970413087
8.676694717501489 9.311130069708804 -2.938310671839564
6.370703045744557 6.841311978046321 -2.504850718502196
21.010415951878905 22.311310386525086 8.211810663012779
21.799260056681938 23.157093681531236 7.342402413783754
nan nan nan
20.948207237965676 22.276389302579329 4.843211037645548
24.611832554773834 26.190613006075889 4.412888924700391
nan nan nan
26.718674154740171 28.462451374005610 2.045917201449160
19.453330225437547 20.737441066848991 0.496311534263468
nan nan nan
21.867019345878226 23.237198355513538 -1.672238473874541
18.649966567746574 19.832432963058540 -2.381792137808002
16.132207964884529 17.161041236421443 -2.891959519004150
16.071635044303363 17.108568213778554 -3.717821496146127
10.824768989526321 11.531240630238260 -3.074314533506890
8.757150070095962 9.331943321929186 -2.954507147752323
6.280899309848944 6.697842730445741 -2.460333842744562
21.038867696346284 22.178091591723049 8.191105139404577
22.128038009492073 23.334394101086790 7.424284597564920
21.533806760121514 22.723648296230891 6.085280480548767
21.091035123308320 22.271977614843774 4.858228746289410
24.691284391587772 26.082930971790670 4.409964060458667
25.857313808866685 27.333784931259476 3.291872403579049
26.795911256134822 28.345790035832344 2.044242450849386
33.686816061593255 35.647726641525473 0.856110345374505
19.001832472099075 20.030753891283666 -0.481930751359147
nan nan nan
18.589620562420560 19.623641032504270 -2.364883923714957
19.500879559582071 20.592785061592032 -3.482294618458684
16.549706945970083 17.488591961360999 -3.813559388750748
10.992410654056073 11.624148348727672 -3.109805006646928
8.729713970446205 9.234641692675691 -2.933811650752687
5.947219617668857 6.295608188380994 -2.320571558389201
28.512818564006015 29.836960282324451 11.058302521050301
21.502779769985207 22.517104564233765 7.188085990503862
nan nan nan
21.216156536134807 22.240263841995695 4.868240552051985
23.642580865737958 24.801140001517119 4.207173473032501
26.557235677866441 27.878100239476453 3.368569457196988
21.902602020742023 22.999997926051211 1.664492752350586
19.320006128483634 20.302190901659081 0.489190952437057
nan nan nan
nan nan nan
21.541904279343019 22.581735481429835 -2.730415108798635
19.649360843774463 20.605037978257741 -3.495943984920061
16.592936848640004 17.412125681059393 -3.809492092659702
11.087075477642333 11.642576199405729 -3.125069726277051
8.788768560209105 9.232342189623290 -2.942809692926442
6.485785023987360 6.817889873528914 -2.521415137388757
26.374762587094544 27.436171314230478 10.197470377039316
21.569362273986609 22.445225253385313 7.186736284177799
30.185773365492970 31.433476035293740 8.471156158737083
21.514375872915153 22.411482063253693 4.920489663375422
23.626932312584330 24.629330958975451 4.190599242329402
21.885179958048823 22.829629349993450 2.766846209267156
21.901666166513309 22.862797164420328 1.659259156726291
nan nan nan
nan nan nan
25.456331760826661 26.499287941521562 -1.925753845915361
22.076343689470590 22.996882807168070 -2.788983767925061
19.980643225080829 20.821068620735460 -3.543229290161258
11.143034408525317 11.619848840568045 -2.549881780155763
10.971460796064516 11.448930733861925 -3.082328511312705
9.050945603464632 9.448136589471019 -3.020642757729419
6.608700464063277 6.903538568605142 -2.560755632244340
26.000086216051944 26.858133037402730 10.016297045467553
21.799359020617626 22.526640836746033 7.237125320350826
nan nan nan
21.449688070968627 22.188540506290735 4.887951294647054
23.585873440814137 24.415357725065075 4.168175283142854
21.765472611585018 22.546680429737929 2.741745355355831
26.840196417271095 27.822976199413816 2.026029538076842
nan nan nan
19.965817049492170 20.624722782058988 -0.501058588814410
25.429251175990672 26.286814606629999 -1.916752061441575
18.628063329721968 19.269722542245798 -2.344838102882995
20.065615722973234 20.764043581302843 -3.545422938342551
11.504624958603674 11.913387893425682 -2.623093109794592
10.729155488431461 11.118129782876991 -3.003333587226815
9.051399226006088 9.382824973460641 -3.009845107120914
6.575105208961189 6.820622221270564 -2.538497194365523
26.036308964263959 26.699035735138853 9.992485693318121
21.853377856365846 22.425287951527107 7.229027082394446
nan nan nan
21.408804376217574 21.999786699009899 4.861983173450375
23.473016732333857 24.129405336231951 4.133320650928982
26.763083804009774 27.530695159907992 3.359156636980241
25.970432681914218 26.724640244231221 1.952968543161692
nan nan nan
19.378839301520426 19.879047314717226 -0.484583517137614
nan nan nan
24.437751869483101 25.103579654708106 -3.065093160949642
11.267906395876626 11.578952887676005 -1.983789171948990
11.130236919291935 11.445473791547474 -2.528606692910292
11.093536247340916 11.415703730380541 -3.094158669026051
9.063728324238420 9.330205776009166 -3.003096575490598
6.588108682311745 6.786540149511645 -2.534356089643883
24.744643558501224 25.197920335778178 9.462941927038363
24.617684796560987 25.086146238535839 8.114434432291899
25.342052543219477 25.842336699737078 7.035509277523960
21.480996801895916 21.912707967199644 4.860105959869893
23.616834254259739 24.108298439423887 4.143801414461825
nan nan nan
26.072878604256520 26.652649430074558 1.954015262286551
nan nan nan
nan nan nan
25.405145830457563 25.897632273899678 -1.901260618393664
24.447125001509026 24.938447490873013 -3.055331717761904
27.311264894035869 27.869877696599044 -4.791171366629968
11.175649663958252 11.412197695233059 -2.529858168630614
11.033078604400067 11.274479030591026 -3.066300555701075
9.111231661965284 9.313834005383349 -3.008045498686163
6.611757991276504 6.763502012691076 -2.534356089643883
22.068157216879168 22.316047959542242 8.409548413471104
22.031318335390083 22.294355265052271 7.236225516133449
nan nan nan
20.440762714211580 20.713713539067392 4.609185077945362
23.706420379655224 24.031366204032459 4.144776369209065
21.885688563331470 22.201172913016350 2.727451813545215
nan nan nan
nan nan nan
19.550887793885597 19.777405004140231 -0.485421232646604
nan nan nan
24.534027488284977 24.852959165832051 -3.055331717761904
27.218753391498826 27.582212490047585 -4.758022905223768
11.245931950997054 11.404061303152112 -2.536741285092384
11.015867965945143 11.178564567893906 -3.050654218080198
9.104027474523420 9.241713299020368 -2.994998337534219
6.644813520566161 6.750018448036249 -2.537979556275319
22.188178318306559 22.281315143800818 8.425595194267460
21.902816499708202 22.010116249748602 7.168740199830291
nan nan nan
21.994463772187096 22.133095042860205 4.942077619550974
23.812545230739005 23.971002054972324 4.148676188198031
21.901290789532336 22.062426952544261 2.719782108183421
nan nan nan
nan nan nan
19.408186768881468 19.496458761003581 -0.480185510715419
19.745380068529837 19.849038250111445 -1.467290869227173
19.701561553310466 19.818821233624679 -2.444892895557307
27.278486810484438 27.450423318132291 -4.751685699366701
16.188006190333731 16.301416129265601 -3.638665656835770
10.089564222238684 10.167345554308620 -2.784284860534542
9.088196742773730 9.161455937401421 -2.979251763730148
6.654734479447902 6.713062868979134 -2.532803175373268
24.623950150778629 24.563855879185351 9.319556176051567
21.905024584825878 21.859194784719389 7.144445485961153
nan nan nan
20.934194847577565 20.919585121686804 4.687402310465478
nan nan nan
21.888020088037923 21.895661782188323 2.708626173111720
nan nan nan
nan nan nan
